# .PCD v0.7 - Point Cloud Data file format
VERSION 0.7
FIELDS x y z rgb
SIZE 4 4 4 4
TYPE F F F F
COUNT 1 1 1 1
WIDTH 883
HEIGHT 1
VIEWPOINT 0 0 0 1 0 0 0
POINTS 883
DATA ascii
8.712543488 -7.89054203 -1.354084373 2.231602557e-38
8.805598259 -7.87624836 -1.360901594 2.231602557e-38
8.899284363 -7.861513138 -1.367839694 2.231602557e-38
9.009714127 -7.86041975 -1.37729764 2.231602557e-38
9.055774689 -7.802484989 -1.376903296 2.231602557e-38
9.129707336 -7.768287182 -1.38083148 2.231602557e-38
9.271379471 -7.790529728 -1.394954681 2.231602557e-38
9.330682755 -7.742418289 -1.396629453 2.231602557e-38
9.444540024 -7.738788605 -1.40654254 2.231602557e-38
9.526792526 -7.708172321 -1.411606431 2.231602557e-38
9.627624512 -7.691790104 -1.419502974 2.231602557e-38
9.715755463 -7.664205551 -1.425466061 2.231602557e-38
9.813458443 -7.643321037 -1.432908654 2.231602557e-38
9.889915466 -7.605041504 -1.437118292 2.222419007e-38
10.01624107 -7.604117393 -1.448629737 2.222419007e-38
10.11031342 -7.577401638 -1.455415606 2.222419007e-38
10.22567654 -7.565628529 -1.465237141 2.222419007e-38
10.31435871 -7.532947063 -1.471248269 2.222419007e-38
10.40137386 -7.498261929 -1.47704041 2.222419007e-38
10.47609806 -7.454118729 -1.481110692 2.222419007e-38
10.62547398 -7.461885929 -1.495668173 2.222419007e-38
10.70607662 -7.420078754 -1.50049901 2.222419007e-38
10.78976059 -7.379724503 -1.505757213 2.222419007e-38
11.0209589 -7.339422226 -1.525280356 2.222419007e-38
11.09889317 -7.292693138 -1.529796243 2.222419007e-38
11.23052502 -7.280107021 -1.541692376 2.222419007e-38
8.129141808 -5.198442936 -1.111571789 2.249969656e-38
8.095132828 -5.106441498 -1.102583051 2.249969656e-38
8.186751366 -5.093728542 -1.110748887 2.249969656e-38
11.69276714 -7.175342083 -1.580340862 2.213235457e-38
11.77787781 -7.127650261 -1.585829854 2.213235457e-38
11.88235092 -7.090886593 -1.593938589 2.213235457e-38
11.98685265 -7.053131104 -1.602109194 2.213235457e-38
12.09415722 -7.015932083 -1.610584617 2.213235457e-38
12.24255371 -7.001203537 -1.624560595 2.213235457e-38
12.32967472 -6.950143337 -1.630405664 2.213235457e-38
12.45007515 -6.916944504 -1.640622497 2.213235457e-38
12.55750465 -6.875350952 -1.649156928 2.213235457e-38
12.67893887 -6.8402071 -1.659532666 2.213235457e-38
12.79963875 -6.803518295 -1.669777513 2.213235457e-38
12.92059231 -6.765647411 -1.6800946 2.204051908e-38
13.0642786 -6.738253593 -1.693286777 2.204051908e-38
13.17278576 -6.691398144 -1.701977134 2.204051908e-38
13.27545071 -6.640666485 -1.709871531 2.204051908e-38
10.27502441 -5.060455799 -1.319434762 2.231602557e-38
10.40073109 -5.042682648 -1.331546545 2.231602557e-38
10.49754429 -5.009674549 -1.339946866 2.231602557e-38
10.98281574 -4.99326992 -1.389826536 2.231602557e-38
11.11904716 -4.972467899 -1.403149366 2.231602557e-38
14.12542534 -6.21243906 -1.777652025 2.204051908e-38
12.05929947 -5.214925766 -1.513541222 2.222419007e-38
12.1182518 -5.151695251 -1.516911745 2.222419007e-38
14.28476143 -5.968749523 -1.78346014 2.204051908e-38
14.35020542 -5.892136574 -1.787049651 2.204051908e-38
14.3467989 -5.787326813 -1.782136679 2.204051908e-38
14.36520004 -5.691701412 -1.780013323 2.204051908e-38
14.43023777 -5.614468575 -1.783732772 2.204051908e-38
14.45194626 -5.520270348 -1.782168388 2.204051908e-38
14.5070734 -5.336658001 -1.780685782 2.204051908e-38
14.52138519 -5.240198612 -1.778429508 2.204051908e-38
14.55514908 -5.150893211 -1.778636694 2.204051908e-38
14.62228394 -5.07309866 -1.782964349 2.204051908e-38
14.61325455 -4.968960762 -1.778091669 2.204051908e-38
14.66505527 -4.885591507 -1.780677676 2.204051908e-38
14.72130013 -4.803396702 -1.783867359 2.204051908e-38
14.72294331 -4.703378677 -1.780502677 2.204051908e-38
14.74012661 -4.608603001 -1.779102206 2.204051908e-38
14.76150227 -4.515271664 -1.778277874 2.204051908e-38
14.78821564 -4.423625469 -1.778169036 2.204051908e-38
14.83028507 -4.336464405 -1.779964447 2.204051908e-38
14.85677433 -4.244659901 -1.779961705 2.204051908e-38
14.92700386 -4.165064335 -1.785260081 2.204051908e-38
14.90332603 -4.059281826 -1.779389143 2.204051908e-38
14.93554115 -3.968986273 -1.780265331 2.204051908e-38
14.95953083 -3.876481295 -1.780233979 2.204051908e-38
14.99446678 -3.786742687 -1.781573057 2.204051908e-38
14.99414062 -3.68817234 -1.778789639 2.204051908e-38
15.02711391 -3.597871304 -1.780023813 2.204051908e-38
15.03304768 -3.501137495 -1.778129935 2.204051908e-38
15.04766178 -3.406580448 -1.777335882 2.204051908e-38
15.09671688 -3.319665432 -1.780666232 2.204051908e-38
15.1130724 -3.225426674 -1.780213952 2.204051908e-38
15.1260891 -3.130526066 -1.779434323 2.204051908e-38
15.16504097 -3.040908813 -1.781768203 2.204051908e-38
15.18866825 -2.948066235 -1.782371283 2.204051908e-38
15.19401646 -2.851706743 -1.780889988 2.204051908e-38
15.22961807 -2.760998011 -1.783027291 2.204051908e-38
15.24003506 -2.665647268 -1.782283187 2.204051908e-38
15.42913342 -2.600492477 -1.802481771 2.194868358e-38
15.91511536 -2.58128953 -1.857355356 2.194868358e-38
16.47285652 -2.567298889 -1.920555949 2.185684809e-38
16.57678223 -2.478595734 -1.930853605 2.185684809e-38
16.59405899 -2.376352072 -1.931115985 2.185684809e-38
16.64752769 -2.06962204 -1.932534814 2.185684809e-38
16.70895767 -1.972409725 -1.938215375 2.185684809e-38
16.68688965 -1.865245104 -1.934281707 2.185684809e-38
16.64147186 -1.756032467 -1.927716732 2.185684809e-38
16.70059204 -1.657912016 -1.933343053 2.185684809e-38
16.74250603 -1.557570457 -1.937039852 2.185684809e-38
16.73263931 -1.452340245 -1.934821963 2.185684809e-38
16.7489872 -1.349452972 -1.935712337 2.185684809e-38
16.71772194 -1.242929697 -1.931174397 2.185684809e-38
16.74099541 -1.140597343 -1.933009982 2.185684809e-38
16.70297241 -1.034278154 -1.927846313 2.185684809e-38
16.77925682 -0.9348719716 -1.935941815 2.185684809e-38
16.73932648 -0.7251018286 -1.930151343 2.185684809e-38
16.73086739 -0.6211010814 -1.928704262 2.185684809e-38
16.75756264 -0.5183398128 -1.931372166 2.185684809e-38
16.75262451 -0.4144979715 -1.930465817 2.185684809e-38
16.74536324 -0.3107148409 -1.929372907 2.185684809e-38
16.76487541 -0.2073764056 -1.931436777 2.185684809e-38
16.74336052 -0.10355331 -1.928850412 2.185684809e-38
16.76819038 -1.036848244e-05 -1.931674838 2.185684809e-38
16.78967667 0.2076660693 -1.934293985 2.185684809e-38
16.78017426 0.3113527 -1.933379292 2.185684809e-38
16.73655128 0.4140947759 -1.928613424 2.185684809e-38
16.7735157 0.5188186169 -1.93320632 2.185684809e-38
16.78876305 0.6232384443 -1.935373664 2.185684809e-38
16.73699188 0.7249884009 -1.929886818 2.185684809e-38
16.76742744 0.830219388 -1.933950424 2.185684809e-38
16.75909424 0.9337410927 -1.933620214 2.185684809e-38
16.75104332 1.037245512 -1.933389783 2.185684809e-38
16.75211143 1.141349792 -1.934298396 2.185684809e-38
16.71014023 1.242350817 -1.930298805 2.185684809e-38
16.71571922 1.346761703 -1.931867599 2.185684809e-38
16.69169807 1.448767066 -1.930087805 2.185684809e-38
16.68274689 1.55200851 -1.930130363 2.185684809e-38
16.66726494 1.654595137 -1.929485083 2.185684809e-38
16.71585655 1.763875961 -1.936337829 2.185684809e-38
16.6744194 1.968317866 -1.934208989 2.185684809e-38
16.64583206 2.174009562 -1.93385756 2.185684809e-38
16.65142822 2.279563904 -1.936112285 2.185684809e-38
16.60651207 2.378130436 -1.932565212 2.185684809e-38
16.57842636 2.478827238 -1.931045294 2.185684809e-38
16.55293274 2.579771757 -1.929892778 2.185684809e-38
16.57321358 2.688006878 -1.934157491 2.185684809e-38
16.56508636 2.897404671 -1.937243104 2.185684809e-38
16.50062943 2.991415501 -1.931836843 2.185684809e-38
16.53282928 3.102976322 -1.937811971 2.185684809e-38
13.68147755 2.655509472 -1.605501056 2.213235457e-38
13.01689434 2.693987608 -1.531304598 2.222419007e-38
12.64759922 2.699233532 -1.489795208 2.222419007e-38
12.04258633 2.726267338 -1.422395587 2.231602557e-38
11.54718304 2.689290285 -1.365818501 2.231602557e-38
11.08740044 2.654595852 -1.313349485 2.240786106e-38
10.77683926 2.650815964 -1.278482437 2.240786106e-38
10.59448338 2.6755476 -1.258784771 2.240786106e-38
10.36170483 2.685039759 -1.233079672 2.240786106e-38
10.22034645 2.715970993 -1.218233585 2.240786106e-38
10.14282322 2.762635708 -1.211006761 2.240786106e-38
10.10201263 2.818735123 -1.208189249 2.240786106e-38
10.07439327 2.878296137 -1.206992626 2.240786106e-38
10.08905029 2.950089455 -1.210909963 2.240786106e-38
10.06963539 3.012133121 -1.210792661 2.240786106e-38
10.05705643 3.076265574 -1.211547375 2.240786106e-38
10.06869793 3.148048401 -1.21527195 2.240786106e-38
10.06309032 3.214734793 -1.216968417 2.240786106e-38
10.03409672 3.273999929 -1.2158885 2.240786106e-38
10.03674984 3.343677282 -1.218691945 2.240786106e-38
10.06167984 3.421256781 -1.224264979 2.240786106e-38
10.00153255 3.469964743 -1.219536543 2.240786106e-38
10.04058456 3.553224087 -1.226952314 2.240786106e-38
9.885335922 3.636481285 -1.213386774 2.240786106e-38
9.909215927 3.714993 -1.21911335 2.240786106e-38
9.864480019 3.767957211 -1.216451764 2.240786106e-38
9.8242836 3.82239604 -1.214389443 2.240786106e-38
9.885861397 3.916907787 -1.224969506 2.240786106e-38
9.839354515 3.969064713 -1.222227097 2.240786106e-38
9.856198311 4.046896935 -1.227400303 2.240786106e-38
9.972401619 4.166872501 -1.245059848 2.240786106e-38
10.02820969 4.263221264 -1.255293965 2.240786106e-38
10.02031803 4.333217621 -1.257634282 2.240786106e-38
10.0165844 4.405332088 -1.260561943 2.240786106e-38
14.00674915 6.26390028 -1.767558575 2.204051908e-38
13.75134563 6.252002239 -1.740171194 2.204051908e-38
13.68435192 6.323959827 -1.736610651 2.204051908e-38
13.69200516 6.430550575 -1.742596745 2.204051908e-38
13.13280773 6.267349243 -1.676330686 2.204051908e-38
12.94538784 6.276482105 -1.657328725 2.213235457e-38
12.7364521 6.272756577 -1.635515451 2.213235457e-38
12.50939083 6.257342815 -1.611293793 2.213235457e-38
12.33789825 6.26725626 -1.594167233 2.213235457e-38
12.12252426 6.252464294 -1.571304917 2.213235457e-38
11.90262604 6.232531071 -1.547767997 2.222419007e-38
11.770257 6.256271362 -1.535558343 2.222419007e-38
11.54613495 6.229026318 -1.511315703 2.222419007e-38
11.36850739 6.22427845 -1.493076563 2.222419007e-38
11.24697495 6.248452187 -1.482161999 2.222419007e-38
11.09042454 6.251547337 -1.466598153 2.222419007e-38
10.93133831 6.251268864 -1.450646639 2.222419007e-38
10.85483074 6.296911716 -1.445632458 2.222419007e-38
10.70325947 6.387209415 -1.435858846 2.231602557e-38
10.63308811 6.434846401 -1.431756973 2.231602557e-38
10.64107323 6.529919624 -1.43824172 2.231602557e-38
10.60331154 6.59735918 -1.438624978 2.222419007e-38
10.57460499 6.670547962 -1.440298915 2.222419007e-38
10.57523537 6.762747765 -1.446054935 2.222419007e-38
10.59692287 6.86931181 -1.454801202 2.222419007e-38
10.60278416 6.966609478 -1.461491108 2.222419007e-38
10.58114052 7.046440601 -1.464482546 2.222419007e-38
10.58780193 7.145800114 -1.47149694 2.222419007e-38
10.58801651 7.241645336 -1.477722168 2.222419007e-38
10.57526112 7.329313278 -1.482237816 2.222419007e-38
10.57121277 7.423717022 -1.488079548 2.222419007e-38
10.61201859 7.550780773 -1.500365615 2.222419007e-38
10.63691235 7.668016434 -1.510560751 2.222419007e-38
13.5535202 9.898524284 -1.933411717 2.185684809e-38
13.47904015 9.97251606 -1.931545377 2.185684809e-38
12.81558514 9.729213715 -1.853579283 2.194868358e-38
12.75254345 9.80625248 -1.853193402 2.194868358e-38
13.23692036 10.30962753 -1.932815433 2.185684809e-38
13.1640358 10.38425922 -1.931508303 2.185684809e-38
13.05603123 10.56364536 -1.934688568 2.185684809e-38
12.98369789 10.63863564 -1.933680058 2.185684809e-38
11.74533844 9.745976448 -1.758192539 2.204051908e-38
11.56557941 9.718213081 -1.740246296 2.204051908e-38
11.4310751 9.7264328 -1.729026079 2.204051908e-38
11.15902233 9.735447884 -1.705961704 2.204051908e-38
10.99443817 9.712240219 -1.689948201 2.204051908e-38
10.86292171 9.716346741 -1.678940654 2.204051908e-38
10.71279716 9.701966286 -1.664976001 2.213235457e-38
10.60272121 9.722294807 -1.657180548 2.213235457e-38
10.49122524 9.740168571 -1.649136424 2.213235457e-38
10.34291458 9.722266197 -1.63524437 2.213235457e-38
10.23182106 9.737737656 -1.627171993 2.213235457e-38
10.07475471 9.707676888 -1.611708403 2.213235457e-38
9.964262009 9.720780373 -1.603622556 2.213235457e-38
9.842475891 9.721468925 -1.593663692 2.213235457e-38
9.766075134 9.766088486 -1.591046453 2.213235457e-38
9.559689522 9.678678513 -1.567144275 2.213235457e-38
9.44025135 9.676716805 -1.557343483 2.213235457e-38
9.245197296 9.714269638 -1.544866681 2.222419007e-38
9.207665443 9.795443535 -1.548689365 2.222419007e-38
9.239709854 10.07639313 -1.574919224 2.213235457e-38
9.255529404 10.34772682 -1.599313378 2.213235457e-38
9.244655609 10.4651041 -1.608587384 2.213235457e-38
9.26134491 10.61557293 -1.622881055 2.213235457e-38
9.28903389 10.78118801 -1.639386654 2.213235457e-38
9.293390274 10.92211437 -1.652043939 2.213235457e-38
10.80380344 12.85753345 -1.93464756 2.185684809e-38
10.68688202 12.87921429 -1.92792809 2.185684809e-38
10.64684677 12.99366665 -1.93516767 2.185684809e-38
10.46399498 13.09769249 -1.931234717 2.185684809e-38
10.38295841 13.16231823 -1.93125999 2.185684809e-38
10.32768631 13.26004314 -1.936189294 2.185684809e-38
10.21878242 13.28897858 -1.931150675 2.185684809e-38
10.15358353 13.37454605 -1.934423566 2.185684809e-38
10.06664371 13.43174934 -1.933656931 2.185684809e-38
2.47435689 3.344392538 -0.4792520404 2.305070954e-38
2.423780203 3.318746328 -0.4734196067 2.305070954e-38
2.386508942 3.310491323 -0.4701272249 2.305070954e-38
2.334540367 3.281009674 -0.4638816416 2.305070954e-38
2.327562094 3.314386845 -0.4665564895 2.305070954e-38
2.289286137 3.303146124 -0.4629727006 2.305070954e-38
2.211164951 3.276220798 -0.4553306699 2.305070954e-38
2.188950062 3.286963224 -0.4549332559 2.305070954e-38
2.130881786 3.243083954 -0.4470275939 2.305070954e-38
2.116310596 3.264702797 -0.4481951594 2.305070954e-38
2.07815814 3.249733448 -0.4443668723 2.305070954e-38
2.066165209 3.275435209 -0.4461253583 2.305070954e-38
2.022083044 3.249868155 -0.4409318864 2.305070954e-38
2.030365229 3.308644533 -0.4471938312 2.305070954e-38
2.011117697 3.323242426 -0.4474772513 2.305070954e-38
1.981904745 3.321145296 -0.4455361664 2.305070954e-38
1.978488326 3.362496614 -0.4494332969 2.305070954e-38
1.941676855 3.347106934 -0.4457628131 2.305070954e-38
1.932827711 3.379840851 -0.4485217631 2.305070954e-38
1.916921258 3.400689363 -0.4497063756 2.305070954e-38
1.884029031 3.391183615 -0.4469003677 2.305070954e-38
1.869167209 3.414015293 -0.448377192 2.305070954e-38
1.845820785 3.42140913 -0.4478405714 2.305070954e-38
1.836888194 3.455831051 -0.4508504868 2.305070954e-38
1.829309702 3.493561029 -0.4542883635 2.305070954e-38
1.798959136 3.487905025 -0.4520974159 2.305070954e-38
1.773811102 3.491950035 -0.4511913955 2.305070954e-38
1.757725835 3.513949394 -0.4526206553 2.305070954e-38
1.750873685 3.55502224 -0.4565076232 2.305070954e-38
1.688068986 3.537198067 -0.4515032768 2.305070954e-38
1.675802946 3.568175077 -0.4541255236 2.305070954e-38
1.669162869 3.611874104 -0.4583647549 2.305070954e-38
1.65155375 3.632623911 -0.4596930742 2.305070954e-38
1.62546742 3.634676218 -0.4586719871 2.305070954e-38
1.603148818 3.645106792 -0.4587283134 2.305070954e-38
1.576826453 3.64628911 -0.4576412439 2.305070954e-38
1.561207891 3.672346115 -0.4596913159 2.305070954e-38
1.53255558 3.667779207 -0.457924366 2.305070954e-38
1.519951701 3.701793671 -0.4609886408 2.305070954e-38
1.49770081 3.712771893 -0.4611935019 2.305070954e-38
1.489500403 3.759367704 -0.4658282399 2.305070954e-38
1.457176089 3.745214939 -0.4629493058 2.305070954e-38
1.452473044 3.802515507 -0.4689128995 2.305070954e-38
1.416524887 3.778391361 -0.4648485482 2.305070954e-38
1.396987081 3.797572136 -0.4661365449 2.305070954e-38
1.375717282 3.812338591 -0.4668958485 2.305070954e-38
1.364637852 3.85619545 -0.4712239802 2.305070954e-38
2.163617849 6.236257553 -0.7604165673 2.277520305e-38
2.125671864 6.251421452 -0.760648191 2.277520305e-38
2.076577902 6.233201504 -0.7568540573 2.277520305e-38
2.039676189 6.251174927 -0.7574906349 2.277520305e-38
1.995715618 6.247129917 -0.755490303 2.277520305e-38
1.949385285 6.234846115 -0.7525325418 2.277520305e-38
1.911221623 6.248220921 -0.7527057528 2.277520305e-38
1.865983725 6.238044739 -0.7500754595 2.277520305e-38
1.830742598 6.260936737 -0.7514520288 2.277520305e-38
1.783153176 6.241292 -0.7477561831 2.277520305e-38
1.704313159 6.257290363 -0.7470906377 2.277520305e-38
1.648650885 6.203989506 -0.7394950986 2.277520305e-38
1.61951673 6.249758244 -0.7437425256 2.277520305e-38
1.576250672 6.241516113 -0.74158746 2.277520305e-38
1.53905642 6.256905079 -0.7422708273 2.277520305e-38
1.493503809 6.237912655 -0.7389080524 2.286703854e-38
1.435164452 6.162247658 -0.7288795114 2.286703854e-38
1.416400194 6.256620407 -0.738992095 2.286703854e-38
1.381499648 6.282575607 -0.7410346866 2.286703854e-38
1.32487762 6.20788002 -0.7312435508 2.286703854e-38
1.286957741 6.218425751 -0.7315344214 2.286703854e-38
1.254884005 6.258139133 -0.7352790833 2.286703854e-38
1.216742396 6.268736839 -0.7356262207 2.286703854e-38
1.123157859 6.19523716 -0.7253153324 2.286703854e-38
1.091826558 6.24221611 -0.7300111651 2.286703854e-38
1.057559252 6.274658203 -0.7330260277 2.286703854e-38
1.010853648 6.232390881 -0.7273442745 2.286703854e-38
0.9775916934 6.272613525 -0.7313186526 2.286703854e-38
0.8871675134 6.195209026 -0.7209596038 2.286703854e-38
0.8545417786 6.242201328 -0.7257990241 2.286703854e-38
0.7742131352 6.2275033 -0.7229216695 2.286703854e-38
0.7368879318 6.242516041 -0.7241214514 2.286703854e-38
0.6986352801 6.250205994 -0.72449857 2.286703854e-38
0.6576853395 6.232865334 -0.7220034003 2.286703854e-38
0.6183866262 6.22918272 -0.7211196423 2.286703854e-38
0.581396699 6.249396324 -0.7230295539 2.286703854e-38
0.5411037207 6.234008789 -0.7208486199 2.286703854e-38
0.5047025681 6.264059544 -0.7239485383 2.286703854e-38
0.4658608139 6.265868664 -0.7238109112 2.286703854e-38
0.4267165661 6.263280392 -0.7231932282 2.286703854e-38
0.3900627792 6.298967361 -0.7270215154 2.286703854e-38
0.3497966826 6.278423786 -0.7243867517 2.286703854e-38
0.3194260299 6.450961113 -0.7440514565 2.277520305e-38
0.2986232936 6.894138813 -0.7949389219 2.277520305e-38
0.258010596 6.950082302 -0.8011908531 2.277520305e-38
0.2155126333 6.967941284 -0.8030804396 2.277520305e-38
0.1289153546 6.948222637 -0.8005623817 2.277520305e-38
0.08577477187 6.93589592 -0.7990657091 2.277520305e-38
0.04305520281 6.962239742 -0.8020550013 2.277520305e-38
0 9.832607269 -1.13270247 2.249969656e-38
-0.060941834 9.857914925 -1.135639548 2.249969656e-38
-0.1242515147 10.04595661 -1.157368541 2.249969656e-38
-0.4133819342 16.70734596 -1.925252914 2.185684809e-38
-0.5164331794 16.69703102 -1.924395323 2.185684809e-38
-0.6193301082 16.68361092 -1.923253655 2.185684809e-38
-0.7228486538 16.68813705 -1.924253821 2.185684809e-38
-0.8266895413 16.69624138 -1.925741315 2.185684809e-38
-0.9311770797 16.71324539 -1.928329468 2.185684809e-38
-1.035039663 16.71593285 -1.929341197 2.185684809e-38
-1.136565328 16.68193436 -1.926191807 2.185684809e-38
-1.240669966 16.68762398 -1.927697778 2.185684809e-38
-1.344916344 16.69307137 -1.929250717 2.185684809e-38
-1.445877314 16.65838432 -1.926239014 2.185684809e-38
-1.654719234 16.66866302 -1.929646015 2.185684809e-38
-1.760508537 16.68436813 -1.932687879 2.185684809e-38
-1.868759036 16.71848297 -1.93794167 2.185684809e-38
-1.969139099 16.68148422 -1.935027242 2.185684809e-38
-2.071972847 16.66643333 -1.934730887 2.185684809e-38
-2.180514574 16.69589806 -1.939679265 2.185684809e-38
-2.271629572 16.59379387 -1.929412127 2.185684809e-38
-2.37599349 16.5916214 -1.930831194 2.185684809e-38
-2.483101845 16.60691833 -1.934361577 2.185684809e-38
-2.585197687 16.58771133 -1.93394959 2.185684809e-38
-2.691763878 16.59643364 -1.936870098 2.185684809e-38
-2.791362524 16.56175423 -1.934800625 2.185684809e-38
-2.888070583 16.51187897 -1.931023717 2.185684809e-38
-2.999655962 16.54613686 -1.937162638 2.185684809e-38
-3.099744081 16.51556015 -1.935789943 2.185684809e-38
-3.192898273 16.45020103 -1.930407047 2.185684809e-38
-3.29666853 16.44068527 -1.931645513 2.185684809e-38
-3.403722048 16.44630623 -1.934742808 2.185684809e-38
-3.496695995 16.3841114 -1.929932475 2.185684809e-38
-3.605304956 16.39585114 -1.933905125 2.185684809e-38
-3.804003477 16.33347893 -1.931950092 2.185684809e-38
-4.011869907 16.31017303 -1.934914947 2.185684809e-38
-4.107730865 16.26565361 -1.932610154 2.185684809e-38
-4.304420948 16.2002964 -1.931023955 2.185684809e-38
-4.609473228 16.13384438 -1.932964802 2.185684809e-38
-4.707215786 16.09826469 -1.932152867 2.185684809e-38
-4.809566498 16.07973289 -1.933462262 2.185684809e-38
-4.912027836 16.05842781 -1.934516072 2.185684809e-38
-5.110793114 15.99823093 -1.934731841 2.185684809e-38
-5.202106476 15.94338894 -1.931952953 2.185684809e-38
-5.298642635 15.90490913 -1.931223869 2.185684809e-38
-5.404389858 15.89395714 -1.933915257 2.185684809e-38
-5.504384518 15.86560249 -1.934570909 2.185684809e-38
-5.595274925 15.81093502 -1.932086945 2.185684809e-38
-5.699845791 15.79511166 -1.934424162 2.185684809e-38
-5.795563698 15.75453186 -1.933806658 2.185684809e-38
-5.884010792 15.69476891 -1.930900574 2.185684809e-38
-5.986974716 15.67379475 -1.932838559 2.185684809e-38
-6.168918133 15.56969929 -1.929263353 2.185684809e-38
-6.287527084 15.5868597 -1.936171055 2.185684809e-38
-6.005444527 14.62620926 -1.821419597 2.194868358e-38
-6.204278469 14.59404755 -1.826831698 2.194868358e-38
-6.301393032 14.57158566 -1.828863263 2.194868358e-38
-6.429425716 14.61878872 -1.839742303 2.194868358e-38
-5.857704639 13.09850597 -1.652945638 2.213235457e-38
-5.93390131 13.05167103 -1.65163517 2.213235457e-38
-6.01266098 13.01072979 -1.651127815 2.213235457e-38
-6.119604588 13.02989292 -1.658330798 2.213235457e-38
-6.205987453 13.00420952 -1.659914613 2.213235457e-38
-6.312062263 13.01876163 -1.66672349 2.213235457e-38
-6.413336277 13.02186966 -1.672166824 2.213235457e-38
-5.411564827 10.81851864 -1.39350009 2.231602557e-38
-5.377979279 10.58723354 -1.367967248 2.231602557e-38
-5.360572338 10.39332294 -1.347169638 2.231602557e-38
-5.372276306 10.2597599 -1.334138155 2.231602557e-38
-5.419000149 10.19508553 -1.330060482 2.231602557e-38
-5.411230564 10.03026485 -1.312898993 2.240786106e-38
-5.46416235 9.980165482 -1.31073916 2.240786106e-38
-5.542665958 9.832849503 -1.300296068 2.240786106e-38
-5.586025238 9.768091202 -1.296276093 2.240786106e-38
-5.645554066 9.731984138 -1.296093345 2.240786106e-38
-5.668175697 9.63325882 -1.287588716 2.240786106e-38
-5.736706734 9.613172531 -1.289620876 2.240786106e-38
-5.818406105 9.614467621 -1.294597507 2.240786106e-38
-5.887599945 9.594345093 -1.296765566 2.240786106e-38
-5.979150295 9.60976696 -1.303822637 2.240786106e-38
-6.09021759 9.654592514 -1.314989924 2.240786106e-38
-6.109866142 9.554285049 -1.306449294 2.240786106e-38
-6.190278053 9.549420357 -1.310993671 2.240786106e-38
-6.285571575 9.566311836 -1.318624139 2.240786106e-38
-6.351367474 9.53740406 -1.320028305 2.231602557e-38
-6.553853989 9.582399368 -1.337373734 2.231602557e-38
-6.684530735 9.644877434 -1.351837039 2.231602557e-38
-6.705189705 9.548035622 -1.344048977 2.231602557e-38
-5.517105103 7.75385046 -1.096268415 2.249969656e-38
-5.485376358 7.510809898 -1.071417212 2.259153205e-38
-5.448974609 7.364911556 -1.05539155 2.259153205e-38
-5.438848495 7.256966114 -1.04472363 2.259153205e-38
-5.475933075 7.213060856 -1.043258071 2.259153205e-38
-5.450366974 7.087917805 -1.030013323 2.259153205e-38
-5.469716549 7.022763252 -1.02544117 2.259153205e-38
-5.471881866 6.936631203 -1.017785788 2.259153205e-38
-5.476284981 6.854625225 -1.010704041 2.259153205e-38
-5.465627193 6.755209446 -1.001009226 2.259153205e-38
-5.491765022 6.618364334 -0.9907217622 2.259153205e-38
-5.476743221 6.517852783 -0.9807270765 2.259153205e-38
-5.489269733 6.451309204 -0.9758036733 2.259153205e-38
-5.527884007 6.415865898 -0.9755952954 2.259153205e-38
-5.501074791 6.305465221 -0.9639621377 2.268336755e-38
-5.531461716 6.261713028 -0.9624842405 2.268336755e-38
-5.570691586 6.228051186 -0.9625878334 2.268336755e-38
-5.559029579 6.138221741 -0.953999877 2.268336755e-38
-5.583499432 6.089114666 -0.9517158866 2.268336755e-38
-5.607102871 6.039441109 -0.9493529201 2.268336755e-38
-5.674762726 6.037040234 -0.9544740319 2.268336755e-38
-5.879337788 6.10164547 -0.976110518 2.259153205e-38
-6.45500803 6.375652313 -1.045175433 2.259153205e-38
-6.467327595 6.309279442 -1.040831327 2.259153205e-38
-6.443963528 6.209179878 -1.030872226 2.259153205e-38
-6.476903915 6.164141178 -1.030025721 2.259153205e-38
-6.547439098 6.078736305 -1.029207587 2.259153205e-38
-6.655495167 6.102848053 -1.040239334 2.259153205e-38
-6.765398979 6.127059937 -1.051478386 2.259153205e-38
-6.829577446 6.108716965 -1.055558324 2.259153205e-38
-6.906998634 6.10149765 -1.061671376 2.259153205e-38
-6.987351894 6.095948696 -1.068204761 2.259153205e-38
-7.08059454 6.100617409 -1.076675296 2.259153205e-38
-7.248352528 6.090579987 -1.090643764 2.249969656e-38
-7.31307888 6.068219662 -1.094717383 2.249969656e-38
-7.416130066 6.076672077 -1.104495883 2.249969656e-38
-7.544165611 6.104005814 -1.117922544 2.249969656e-38
-7.628294945 6.094380379 -1.124777794 2.249969656e-38
-7.71531105 6.086128235 -1.132039785 2.249969656e-38
-7.828472614 6.097229958 -1.143087387 2.249969656e-38
-7.941473007 6.106733322 -1.154054403 2.249969656e-38
-8.031188965 6.097061157 -1.161590815 2.249969656e-38
-8.114850044 6.081819534 -1.168226242 2.249969656e-38
-8.207525253 6.072372437 -1.176138043 2.249969656e-38
-8.298797607 6.060856342 -1.183825254 2.249969656e-38
-8.391013145 6.048978806 -1.191618204 2.249969656e-38
-8.57448864 6.021499634 -1.207005024 2.240786106e-38
-8.853377342 6.135957718 -1.240899563 2.240786106e-38
-8.832515717 6.040987968 -1.232716918 2.240786106e-38
-8.890541077 6.000320435 -1.235613704 2.240786106e-38
-9.024712563 6.00995779 -1.249068022 2.240786106e-38
-6.459182262 4.187085629 -0.8867511749 2.268336755e-38
-6.479963303 4.143873215 -0.8860700727 2.268336755e-38
-6.4529953 4.070617199 -0.8789225221 2.268336755e-38
-6.437321186 4.005291939 -0.8733969331 2.268336755e-38
-6.394980431 3.870055676 -0.8610903621 2.268336755e-38
-6.443511486 3.845182657 -0.8644065261 2.268336755e-38
-6.414748669 3.774428368 -0.8574011922 2.268336755e-38
-6.40805912 3.717332125 -0.8534171581 2.268336755e-38
-6.404366493 3.662447453 -0.8498939872 2.277520305e-38
-6.41779232 3.617648363 -0.8486918807 2.277520305e-38
-6.430033207 3.572313786 -0.8473693728 2.277520305e-38
-6.387765408 3.497304201 -0.8389319777 2.277520305e-38
-6.381699085 3.442875147 -0.8353272676 2.277520305e-38
-6.386871338 3.39484024 -0.8332388997 2.277520305e-38
-6.387351513 3.344592571 -0.830585897 2.277520305e-38
-6.451318264 3.327409983 -0.8362109661 2.277520305e-38
-6.451734543 3.277284622 -0.8336253166 2.277520305e-38
-6.458667755 3.230696917 -0.8319186568 2.277520305e-38
-6.453240395 3.178241968 -0.8286722302 2.277520305e-38
-6.482113838 3.142819405 -0.829872787 2.277520305e-38
-6.507112026 3.105384827 -0.8305978179 2.277520305e-38
-6.483139515 3.04485321 -0.8251162171 2.277520305e-38
-6.516033173 3.011254787 -0.826915741 2.277520305e-38
-6.530487061 2.969065428 -0.8264043331 2.277520305e-38
-6.50005722 2.906861305 -0.8202635646 2.277520305e-38
-6.571142673 2.890023947 -0.8269637227 2.277520305e-38
-6.568862915 2.840656996 -0.8244473934 2.277520305e-38
-6.541871548 2.781108856 -0.8188894391 2.277520305e-38
-6.590696335 2.753867865 -0.8228542805 2.277520305e-38
-6.612645149 2.715118408 -0.8234801888 2.277520305e-38
-6.616066456 2.668839931 -0.8218370676 2.277520305e-38
-6.751552582 2.675056219 -0.8365933299 2.277520305e-38
-6.828513622 2.656818151 -0.8440795541 2.277520305e-38
-6.939200878 2.650590181 -0.8557187319 2.268336755e-38
-7.078484535 2.653745651 -0.8708530068 2.268336755e-38
-7.172896385 2.638658047 -0.8804420829 2.268336755e-38
-7.284780502 2.628793955 -0.8921670914 2.268336755e-38
-7.417104244 2.624808788 -0.9063636065 2.268336755e-38
-7.520052433 2.609036207 -0.9169595838 2.268336755e-38
-7.636052132 2.596482038 -0.929125905 2.268336755e-38
-7.765985489 2.587200165 -0.9429711103 2.268336755e-38
-7.903497696 2.578817606 -0.9577142 2.268336755e-38
-8.058027267 2.574209452 -0.9744904637 2.259153205e-38
-8.18787384 2.559991121 -0.9882586002 2.259153205e-38
-8.34679985 2.553126335 -1.005515456 2.259153205e-38
-8.498332977 2.542116404 -1.021858096 2.259153205e-38
-8.641864777 2.526926517 -1.037216544 2.259153205e-38
-8.832716942 2.52355504 -1.05823195 2.259153205e-38
-9.034158707 2.520785809 -1.080480695 2.259153205e-38
-15.93453693 4.340137005 -1.902507424 2.194868358e-38
-15.87674809 4.114161015 -1.889387846 2.194868358e-38
-16.29732132 4.115766525 -1.936373115 2.185684809e-38
-16.31449699 4.01293087 -1.935425997 2.185684809e-38
-16.31641388 3.906555176 -1.932748437 2.185684809e-38
-16.30134773 3.79651618 -1.928148389 2.185684809e-38
-16.32384491 3.695484638 -1.928071976 2.185684809e-38
-16.3482914 3.594885349 -1.928298831 2.185684809e-38
-16.41885567 3.504094601 -1.934022427 2.185684809e-38
-16.39263153 3.392638206 -1.928426981 2.185684809e-38
-16.48730087 3.30603838 -1.937123179 2.185684809e-38
-16.45015526 3.192907095 -1.930403113 2.185684809e-38
-16.50999069 3.098688841 -1.935135126 2.185684809e-38
-16.51877594 2.994709492 -1.933961511 2.185684809e-38
-16.54201508 2.893381119 -1.934549451 2.185684809e-38
-15.8121109 2.665040731 -1.847225428 2.194868358e-38
-15.79647255 2.562035322 -1.843510747 2.194868358e-38
-15.82107353 2.46571064 -1.844566822 2.194868358e-38
-16.17912674 2.419131517 -1.884531617 2.194868358e-38
-16.61558151 2.379435539 -1.933620811 2.185684809e-38
-16.60874939 2.273724079 -1.93115437 2.185684809e-38
-16.62404442 2.171181679 -1.931335568 2.185684809e-38
-16.65025902 1.965463996 -1.931402087 2.185684809e-38
-16.6676693 1.863087058 -1.932053924 2.185684809e-38
-16.6616993 1.758167386 -1.930064321 2.185684809e-38
-16.68218231 1.656074524 -1.931207538 2.185684809e-38
-16.69621086 1.553252697 -1.931683779 2.185684809e-38
-16.71492577 1.450806022 -1.93277812 2.185684809e-38
-16.74983215 1.349510789 -1.935805678 2.185684809e-38
-16.72145462 1.243197322 -1.931610346 2.185684809e-38
-16.7695446 1.142536163 -1.936311126 2.185684809e-38
-16.76063347 1.037841797 -1.93449676 2.185684809e-38
-16.77036667 0.9343752265 -1.934920669 2.185684809e-38
-16.74227715 0.8289801478 -1.931049585 2.185684809e-38
-16.79405975 0.7274706364 -1.936471462 2.185684809e-38
-16.78110123 0.6229566932 -1.934494972 2.185684809e-38
-16.74161148 0.5178317428 -1.92952919 2.185684809e-38
-16.74566078 0.3107149899 -1.92941165 2.185684809e-38
-16.8077755 0.2078972757 -1.936379194 2.185684809e-38
-16.77116394 0.103714034 -1.932048798 2.185684809e-38
-15.75657177 9.162819879e-06 -1.934664607 2.194868358e-38
-15.76710796 -0.09750305861 -1.935992002 2.194868358e-38
-15.74727726 -0.2921794057 -1.933849812 2.194868358e-38
-15.74050903 -0.3894478381 -1.933287263 2.194868358e-38
-15.70692825 -0.4858252108 -1.92948842 2.194868358e-38
-15.75719166 -0.5849372149 -1.936071515 2.194868358e-38
-15.74880028 -0.6821811795 -1.935520887 2.194868358e-38
-15.71524334 -0.7781259418 -1.931958199 2.194868358e-38
-15.72700882 -0.8762338758 -1.934024334 2.194868358e-38
-15.68437099 -1.068599939 -1.930263281 2.194868358e-38
-15.74137497 -1.170323849 -1.93813169 2.194868358e-38
-15.70998573 -1.265723228 -1.935191393 2.194868358e-38
-15.67233944 -1.36030066 -1.931554079 2.194868358e-38
-15.71466351 -1.461939454 -1.937846661 2.194868358e-38
-15.65349579 -1.553951621 -1.931454062 2.194868358e-38
-15.64900303 -1.651295662 -1.932123423 2.194868358e-38
-15.66407681 -1.750900865 -1.935283303 2.194868358e-38
-15.62527752 -1.942523599 -1.933313489 2.194868358e-38
-15.59928036 -2.037325621 -1.931613207 2.194868358e-38
-15.59936619 -2.135540247 -1.933229804 2.194868358e-38
-15.5980711 -2.233706713 -1.934736013 2.194868358e-38
-15.59876728 -2.332348585 -1.936579585 2.194868358e-38
-15.56130314 -2.425220966 -1.933752537 2.194868358e-38
-15.57634926 -2.526333094 -1.937524676 2.194868358e-38
-15.50535583 -2.613330364 -1.93066895 2.194868358e-38
-15.42092991 -2.795676708 -1.924318194 2.194868358e-38
-14.97103977 -2.809844971 -1.870307088 2.204051908e-38
-14.47459507 -2.809441328 -1.810421228 2.204051908e-38
-14.24386215 -2.856175423 -1.78373754 2.213235457e-38
-14.19426537 -2.937662601 -1.779770851 2.213235457e-38
-14.15410614 -3.020733595 -1.777032733 2.213235457e-38
-14.12883282 -3.106832027 -1.776246905 2.213235457e-38
-14.13621235 -3.200238705 -1.779633641 2.213235457e-38
-14.0990696 -3.283600092 -1.777471066 2.213235457e-38
-14.08049488 -3.371220827 -1.777730107 2.213235457e-38
-14.09579182 -3.467184782 -1.782331944 2.213235457e-38
-14.03344727 -3.544039011 -1.777189732 2.213235457e-38
-14.03560734 -3.637063742 -1.780277371 2.213235457e-38
-13.96884346 -3.804726124 -1.777635813 2.213235457e-38
-13.89538097 -4.15652895 -1.780830026 2.213235457e-38
-13.85979652 -4.239441395 -1.779596686 2.213235457e-38
-13.78559017 -4.403927803 -1.776930571 2.213235457e-38
-13.798769 -4.502358913 -1.782181978 2.213235457e-38
-13.75241756 -4.581536293 -1.779821277 2.213235457e-38
-13.71394253 -4.663141727 -1.778542995 2.213235457e-38
-13.69051647 -4.749821186 -1.779276013 2.213235457e-38
-13.65961552 -4.833942413 -1.779109955 2.213235457e-38
-13.63744926 -4.921206951 -1.780154586 2.213235457e-38
-13.58792114 -4.998522758 -1.77769053 2.213235457e-38
-13.59399986 -5.09641552 -1.782573462 2.213235457e-38
-13.55785847 -5.17872858 -1.782001734 2.213235457e-38
-13.53258801 -5.265200615 -1.78292644 2.213235457e-38
-13.47921944 -5.34062767 -1.7802068 2.213235457e-38
-13.43106365 -5.417898178 -1.778241515 2.213235457e-38
-13.40383434 -5.503526211 -1.779106021 2.213235457e-38
-13.39326382 -5.596246719 -1.782269835 2.213235457e-38
-13.32481575 -5.664678574 -1.777785182 2.213235457e-38
-13.29600525 -5.749775887 -1.778652549 2.213235457e-38
-13.27881813 -5.840088367 -1.781151772 2.213235457e-38
-10.74810505 -4.967022896 -1.453816056 2.231602557e-38
-10.49533749 -4.929219246 -1.423725605 2.231602557e-38
-10.35245419 -4.940484524 -1.408460021 2.231602557e-38
-10.20701694 -4.948793411 -1.392806768 2.240786106e-38
-10.04338455 -4.946403503 -1.374627233 2.240786106e-38
-9.928970337 -4.966599464 -1.363149524 2.240786106e-38
-9.850884438 -5.003941059 -1.356651068 2.240786106e-38
-9.651767731 -4.978123665 -1.33344388 2.240786106e-38
-9.529626846 -4.989980221 -1.32080698 2.240786106e-38
-9.419796944 -5.006930828 -1.30984962 2.240786106e-38
-9.213283539 -5.044301033 -1.289714098 2.240786106e-38
-9.128435135 -5.071467876 -1.282201886 2.240786106e-38
-12.65526772 -7.133606434 -1.783731341 2.213235457e-38
-12.58613777 -7.197575092 -1.780229807 2.213235457e-38
-12.56128979 -7.28684473 -1.783061028 2.213235457e-38
-12.4605999 -7.331794262 -1.775169253 2.213235457e-38
-12.46298409 -7.437301159 -1.782019377 2.213235457e-38
-12.38173103 -7.493095398 -1.777006269 2.213235457e-38
-12.3625021 -7.586276531 -1.780941486 2.213235457e-38
-12.23774433 -7.719643593 -1.776578188 2.213235457e-38
-12.20191479 -7.80297327 -1.778354049 2.213235457e-38
-12.16526508 -7.885961056 -1.780086875 2.213235457e-38
-12.1389637 -7.975953102 -1.783422709 2.213235457e-38
-12.07260895 -8.039673805 -1.780940771 2.213235457e-38
-7.510357857 -5.136716843 -1.117224097 2.259153205e-38
-7.503666401 -5.200526237 -1.120989323 2.259153205e-38
-11.86337948 -8.331169128 -1.779947281 2.213235457e-38
-11.76707172 -8.48273468 -1.781097054 2.213235457e-38
-11.7077589 -8.550461769 -1.780080795 2.213235457e-38
-11.67486382 -8.637708664 -1.783179998 2.213235457e-38
-11.61899567 -8.708072662 -1.782836676 2.213235457e-38
-11.5613327 -8.777012825 -1.782279491 2.213235457e-38
-11.48669338 -8.832886696 -1.779166579 2.213235457e-38
-11.44618607 -8.91488266 -1.781390548 2.213235457e-38
-11.39845467 -8.991557121 -1.782591939 2.213235457e-38
-11.29891872 -9.026903152 -1.775712848 2.213235457e-38
-11.26839447 -9.117261887 -1.779744864 2.213235457e-38
-11.24923897 -9.217437744 -1.785684466 2.213235457e-38
-11.13810635 -9.242134094 -1.777090669 2.213235457e-38
-11.08969498 -9.318312645 -1.778517246 2.213235457e-38
-11.06969547 -9.418928146 -1.784620881 2.213235457e-38
-10.98710537 -9.466407776 -1.780708432 2.213235457e-38
-10.90462685 -9.513578415 -1.776756287 2.213235457e-38
-10.80040264 -9.540909767 -1.76935935 2.213235457e-38
-10.59326649 -9.593763351 -1.754754782 2.213235457e-38
-10.4889307 -9.617996216 -1.74731493 2.213235457e-38
-10.41568565 -9.670084 -1.745040655 2.213235457e-38
-10.31516075 -9.696252823 -1.738165021 2.213235457e-38
-10.21456814 -9.721345901 -1.73129046 2.213235457e-38
-10.13127041 -9.762187004 -1.727388144 2.213235457e-38
-10.03122234 -9.78618145 -1.720617652 2.213235457e-38
-9.918397903 -9.796491623 -1.711604476 2.213235457e-38
-9.739203453 -9.860439301 -1.701617956 2.213235457e-38
-9.57952404 -9.819507599 -1.684293032 2.213235457e-38
-9.451495171 -9.80888176 -1.672426581 2.213235457e-38
-9.298516273 -9.770420074 -1.655994058 2.213235457e-38
-9.196496964 -9.783666611 -1.648613214 2.222419007e-38
-8.924659729 -9.732950211 -1.621315598 2.222419007e-38
-8.651892662 -9.672929764 -1.593404651 2.222419007e-38
-8.533236504 -9.659870148 -1.582486868 2.222419007e-38
-8.408522606 -9.638066292 -1.570405006 2.222419007e-38
-8.283617973 -9.614340782 -1.558155775 2.222419007e-38
-7.934550762 -9.562308311 -1.525577903 2.231602557e-38
-7.796317101 -9.514922142 -1.510308146 2.231602557e-38
-7.730987072 -9.555083275 -1.509064078 2.231602557e-38
-7.584471703 -9.493447304 -1.491890907 2.231602557e-38
-7.465120316 -9.463464737 -1.479894519 2.231602557e-38
-7.385025978 -9.481960297 -1.475620985 2.231602557e-38
-7.256804943 -9.437170982 -1.461639166 2.231602557e-38
-7.182855606 -9.461483955 -1.458509088 2.231602557e-38
-7.07158947 -9.435515404 -1.447692633 2.231602557e-38
-6.850538731 -9.380170822 -1.426088095 2.231602557e-38
-3.595106363 -4.987078667 -0.7548639178 2.286703854e-38
-3.558899403 -5.001725674 -0.7537357211 2.286703854e-38
-3.499173641 -4.982765675 -0.7476029396 2.286703854e-38
-3.454362392 -4.984196186 -0.744598031 2.286703854e-38
-3.419434547 -4.999592781 -0.7437249422 2.286703854e-38
-3.340650558 -4.949771881 -0.7332267165 2.286703854e-38
-3.318762541 -4.983560085 -0.7351772189 2.286703854e-38
-3.267123699 -4.972373486 -0.7305323482 2.286703854e-38
-3.219420195 -4.966448784 -0.7267230153 2.286703854e-38
-3.177586555 -4.968967915 -0.7242022753 2.286703854e-38
-3.142269373 -4.98136425 -0.7231626511 2.286703854e-38
-3.108669758 -4.996268272 -0.7225214839 2.286703854e-38
-3.050124884 -4.970455647 -0.7160473466 2.286703854e-38
-2.986946583 -4.935708046 -0.7083666325 2.286703854e-38
-2.972718239 -4.981506824 -0.712287724 2.286703854e-38
-2.922256231 -4.966522694 -0.707547605 2.286703854e-38
-2.883864164 -4.971320629 -0.7056767344 2.286703854e-38
-2.835634708 -4.958575249 -0.7013648748 2.286703854e-38
-2.789577484 -4.94881916 -0.6975316405 2.286703854e-38
-2.747606993 -4.945633411 -0.6946738362 2.286703854e-38
-2.714657545 -4.958324432 -0.6940852404 2.286703854e-38
-2.633273125 -4.954157829 -0.6888898611 2.286703854e-38
-2.595565081 -4.956896305 -0.6870253682 2.286703854e-38
-2.571866989 -4.986464977 -0.6889058948 2.286703854e-38
-2.526783705 -4.974335194 -0.6850580573 2.286703854e-38
-2.479277134 -4.956467152 -0.6804725528 2.286703854e-38
-2.441294909 -4.956938267 -0.6784517765 2.286703854e-38
-2.420401096 -4.992145061 -0.6812084317 2.286703854e-38
-2.3665452 -4.958956718 -0.6746697426 2.286703854e-38
-2.340517044 -4.983493328 -0.6760259271 2.286703854e-38
-2.272330284 -4.998040676 -0.6741347313 2.286703854e-38
-2.228561878 -4.983378887 -0.6702854633 2.286703854e-38
-2.192098618 -4.984268665 -0.6685688496 2.286703854e-38
-2.162376642 -5.000386238 -0.6689242125 2.286703854e-38
-2.131793737 -5.014546871 -0.6690421104 2.286703854e-38
-2.09822607 -5.021657467 -0.6682468653 2.286703854e-38
-2.050719738 -4.994568825 -0.6629415751 2.295887404e-38
-1.996949911 -4.950475216 -0.6554372907 2.295887404e-38
-1.981445312 -5.001046181 -0.6604978442 2.295887404e-38
-1.960510612 -5.038897514 -0.663882494 2.295887404e-38
-1.92905879 -5.050338745 -0.6638057232 2.286703854e-38
-1.906799436 -5.086146832 -0.6669495702 2.286703854e-38
-3.091181993 -8.403068542 -1.099280119 2.259153205e-38
-3.014282227 -8.353089333 -1.090286613 2.259153205e-38
-2.792899847 -8.383490562 -1.084969521 2.259153205e-38
-2.718452215 -8.331409454 -1.076004267 2.259153205e-38
-2.605262756 -8.332696915 -1.071921587 2.259153205e-38
-2.537649155 -8.296458244 -1.065211773 2.259153205e-38
-2.484790802 -8.306674004 -1.064512849 2.259153205e-38
-2.364932537 -8.277575493 -1.056984544 2.259153205e-38
-2.310414314 -8.280374527 -1.055482507 2.259153205e-38
-2.253303051 -8.272681236 -1.052689314 2.259153205e-38
-2.185806274 -8.225330353 -1.044899464 2.259153205e-38
-2.133938551 -8.234945297 -1.044428945 2.259153205e-38
-2.068569899 -8.19108963 -1.037260652 2.259153205e-38
-2.024434566 -8.230215073 -1.040581107 2.259153205e-38
-1.91727376 -8.232275963 -1.037806988 2.259153205e-38
-1.85430932 -8.190944672 -1.031062722 2.259153205e-38
-1.743557811 -8.169652939 -1.025635123 2.268336755e-38
-1.697007298 -8.199648857 -1.028030157 2.268336755e-38
-1.635249138 -8.15511322 -1.021158218 2.268336755e-38
-1.526311755 -8.132588387 -1.015896559 2.268336755e-38
-1.472905636 -8.124473572 -1.013735294 2.268336755e-38
-1.423971891 -8.141054153 -1.014712572 2.268336755e-38
-1.37169075 -8.138269424 -1.013294339 2.268336755e-38
-1.318707585 -8.130633354 -1.011292934 2.268336755e-38
-1.268461347 -8.138886452 -1.011304736 2.268336755e-38
-1.209422827 -8.088386536 -1.00410676 2.268336755e-38
-1.161915898 -8.11390686 -1.006347179 2.268336755e-38
-1.103248119 -8.058776855 -0.9986831546 2.268336755e-38
-1.05288887 -8.061851501 -0.9982019067 2.268336755e-38
-1.002590537 -8.065010071 -0.9977721572 2.268336755e-38
-0.9511995316 -8.058181763 -0.996186018 2.268336755e-38
-0.8986740708 -8.039645195 -0.9931969047 2.268336755e-38
-0.85017097 -8.05697155 -0.9946761727 2.268336755e-38
-0.7967091203 -8.025209427 -0.9901434183 2.268336755e-38
-0.7484462261 -8.045030594 -0.9920113087 2.268336755e-38
-0.6984671354 -8.047355652 -0.9917259812 2.268336755e-38
-0.6455005407 -8.011884689 -0.9868084788 2.268336755e-38
-0.594301343 -7.992548943 -0.9840051532 2.268336755e-38
-0.5458998084 -8.012486458 -0.9860067368 2.268336755e-38
-0.4918540716 -7.943218231 -0.9771198034 2.268336755e-38
-0.284581542 -5.108609676 -0.6282351613 2.295887404e-38
-0.2510918379 -5.071835041 -0.6235097051 2.295887404e-38
-0.2187574208 -5.051305294 -0.6208078861 2.295887404e-38
-0.1864605993 -5.023485184 -0.6172351241 2.295887404e-38
-0.1550485343 -5.013957977 -0.61593467 2.295887404e-38
-0.1233379543 -4.986816406 -0.6124953032 2.295887404e-38
-0.0927818194 -5.002794266 -0.6143754125 2.295887404e-38
-0.06155937165 -4.979352951 -0.6114379168 2.295887404e-38
3.892415407e-05 -4.98378706 -0.611935854 2.295887404e-38
0.03092576936 -4.997895241 -0.6136798859 2.295887404e-38
0.06213629246 -5.019175053 -0.6163281798 2.295887404e-38
0.1226580217 -4.956769466 -0.6088047624 2.295887404e-38
0.1549590826 -5.009177208 -0.6153476238 2.295887404e-38
0.1850299835 -4.983438492 -0.6123144627 2.295887404e-38
0.2159442157 -4.984004498 -0.6125364304 2.295887404e-38
0.246515587 -4.977833748 -0.6119536161 2.295887404e-38
0.3075441122 -4.9662323 -0.6109480262 2.295887404e-38
0.3390847445 -4.9765625 -0.6124655604 2.295887404e-38
0.3718027174 -5.000153542 -0.6156399846 2.295887404e-38
0.6231557727 -7.73447752 -0.9527103305 2.268336755e-38
0.7207885981 -7.747770309 -0.9553135633 2.268336755e-38
0.8169757724 -7.742615223 -0.9558730721 2.268336755e-38
0.8627476096 -7.718182087 -0.9534937739 2.268336755e-38
0.9060548544 -7.675951481 -0.948924005 2.268336755e-38
0.9548646808 -7.680554867 -0.9502059221 2.268336755e-38
1.054178476 -7.700262547 -0.9542064667 2.268336755e-38
1.093762875 -7.637830257 -0.9473013282 2.268336755e-38
1.139363885 -7.620254517 -0.9459970593 2.268336755e-38
1.191767454 -7.646934509 -0.9501681328 2.268336755e-38
1.284912944 -7.623466492 -0.9491134882 2.268336755e-38
1.331246018 -7.611091614 -0.9486523867 2.268336755e-38
1.423700213 -7.585446835 -0.9475557804 2.268336755e-38
1.471038342 -7.579082489 -0.9478642941 2.268336755e-38
1.515443802 -7.557599545 -0.9463225603 2.268336755e-38
1.561601877 -7.545404911 -0.9459859729 2.268336755e-38
1.615822792 -7.571182251 -0.9504645467 2.268336755e-38
1.698874712 -7.504478931 -0.9446709156 2.268336755e-38
1.754652619 -7.534310818 -0.94977355 2.268336755e-38
1.800871611 -7.521913052 -0.9496090412 2.268336755e-38
1.845668316 -7.503624439 -0.9487016201 2.268336755e-38
1.891148925 -7.488358498 -0.9482598901 2.268336755e-38
1.976139903 -7.436366081 -0.94467026 2.268336755e-38
2.026600122 -7.440590858 -0.9468021989 2.268336755e-38
2.068081141 -7.411754608 -0.9447072744 2.268336755e-38
2.125968456 -7.441318512 -0.950193584 2.268336755e-38
2.16424346 -7.401623249 -0.9468246102 2.268336755e-38
2.206079006 -7.375101089 -0.9451137185 2.268336755e-38
2.263211489 -7.399022102 -0.9499215484 2.268336755e-38
2.307494402 -7.380395412 -0.9493473768 2.268336755e-38
2.347193003 -7.347424984 -0.9469666481 2.268336755e-38
2.420091391 -7.417149067 -0.9579421282 2.268336755e-38
2.468180895 -7.408879757 -0.9587430358 2.268336755e-38
2.530791283 -7.442948341 -0.9652011395 2.268336755e-38
2.580103874 -7.436648369 -0.9664227366 2.268336755e-38
2.68287611 -7.43476963 -0.9704328775 2.268336755e-38
2.736258745 -7.438272476 -0.9730611444 2.268336755e-38
2.798781872 -7.465504169 -0.9788911343 2.268336755e-38
2.852343321 -7.467476368 -0.9813793898 2.268336755e-38
2.902989864 -7.461388111 -0.9830058217 2.268336755e-38
2.957640886 -7.464880943 -0.985761404 2.268336755e-38
3.029809475 -7.51090765 -0.9943681955 2.268336755e-38
3.077825785 -7.496142387 -0.9948983788 2.268336755e-38
3.13903451 -7.512661457 -0.9996770024 2.268336755e-38
3.181498289 -7.483795643 -0.9984214306 2.268336755e-38
3.236831665 -7.485039234 -1.001234651 2.268336755e-38
3.297087193 -7.496786594 -1.005510807 2.268336755e-38
3.365878105 -7.526548862 -1.012286186 2.268336755e-38
3.421813965 -7.526277542 -1.015096545 2.268336755e-38
3.488206387 -7.548111439 -1.02089119 2.268336755e-38
3.53498292 -7.526875973 -1.02095294 2.268336755e-38
3.620022774 -7.585573673 -1.031944394 2.268336755e-38
3.668039322 -7.5654459 -1.032266736 2.268336755e-38
3.706641436 -7.526174545 -1.030024767 2.259153205e-38
3.786122084 -7.569077969 -1.039069295 2.259153205e-38
3.846121311 -7.571635246 -1.042663693 2.259153205e-38
3.904353857 -7.56992054 -1.045781136 2.259153205e-38
3.967862368 -7.577709198 -1.050160766 2.259153205e-38
4.048838139 -7.617397308 -1.059151292 2.259153205e-38
4.101646423 -7.602824688 -1.060641289 2.259153205e-38
2.794312716 -5.103679657 -0.7144323587 2.286703854e-38
2.811848879 -5.061135292 -0.7108974457 2.286703854e-38
2.827648401 -5.016232967 -0.7070328593 2.286703854e-38
2.859640598 -5.000424862 -0.7072839141 2.286703854e-38
2.898132801 -4.995800972 -0.7091514468 2.286703854e-38
2.951070786 -5.01533556 -0.7145013809 2.286703854e-38
2.982472658 -4.997731209 -0.7146072388 2.286703854e-38
3.035676956 -5.016143799 -0.7199105024 2.286703854e-38
3.074380875 -5.009858608 -0.7217232585 2.286703854e-38
3.096845865 -4.977155685 -0.7197574377 2.286703854e-38
3.152818918 -4.997975826 -0.7255738974 2.286703854e-38
3.186853409 -4.983382702 -0.7263023853 2.286703854e-38
3.220551014 -4.968074322 -0.7269601226 2.286703854e-38
3.267950535 -4.973571777 -0.730708003 2.286703854e-38
3.30793643 -4.967179775 -0.7327600718 2.286703854e-38
3.347700834 -4.960146427 -0.734762609 2.286703854e-38
3.384961843 -4.949088097 -0.7362115979 2.286703854e-38
3.463871956 -4.997829437 -0.7466344237 2.286703854e-38
3.518553019 -5.010248184 -0.7517258525 2.286703854e-38
