# .PCD v0.7 - Point Cloud Data file format
VERSION 0.7
FIELDS x y z rgb
SIZE 4 4 4 4
TYPE F F F F
COUNT 1 1 1 1
WIDTH 883
HEIGHT 1
VIEWPOINT 0 0 0 1 0 0 0
POINTS 883
DATA ascii
10.34650803 4.323190212 -0.8684504628 2.240786106e-38
14.22849941 6.257759571 -1.203828335 2.204051908e-38
13.79494476 6.271830559 -1.173619151 2.204051908e-38
13.36340523 6.276214123 -1.143421412 2.204051908e-38
13.15045452 6.275768757 -1.128502011 2.213235457e-38
12.73091698 6.2700243 -1.099069476 2.213235457e-38
12.54621124 6.275764465 -1.086453557 2.213235457e-38
12.33909607 6.267856598 -1.071853399 2.213235457e-38
12.18749332 6.285975933 -1.062042356 2.213235457e-38
12.02204704 6.295078278 -1.050998807 2.222419007e-38
11.86576557 6.307033539 -1.040723324 2.222419007e-38
11.67595863 6.299058437 -1.027472496 2.222419007e-38
11.53768539 6.316890717 -1.0187217 2.222419007e-38
11.41853428 6.343755722 -1.011647582 2.222419007e-38
11.27109146 6.353378296 -1.002047658 2.222419007e-38
11.1377573 6.369292259 -0.9936750531 2.222419007e-38
11.07014942 6.421823025 -0.9911708236 2.222419007e-38
11.00880718 6.569529533 -0.9928747416 2.222419007e-38
10.95003414 6.719497681 -0.9949939251 2.222419007e-38
10.96170044 6.82033968 -0.9998697042 2.222419007e-38
10.9556551 6.910925865 -1.003197908 2.222419007e-38
10.98447514 7.024435043 -1.009793758 2.222419007e-38
10.96119213 7.105447292 -1.011675 2.222419007e-38
10.93430424 7.281646252 -1.017428756 2.222419007e-38
10.94554424 7.387231827 -1.022704244 2.222419007e-38
10.93068886 7.476015568 -1.025618076 2.222419007e-38
10.96988487 7.602814198 -1.033687234 2.222419007e-38
11.00597668 7.729043007 -1.041574359 2.222419007e-38
13.69253445 9.74267292 -1.301496983 2.185684809e-38
13.49437618 9.727952003 -1.288358092 2.194868358e-38
13.29905033 9.712683678 -1.275420427 2.194868358e-38
13.12247276 9.708726883 -1.264218688 2.194868358e-38
12.91971302 9.682898521 -1.250427961 2.194868358e-38
12.77831364 9.700925827 -1.242527008 2.194868358e-38
12.5919342 9.68273735 -1.230199218 2.194868358e-38
12.4338541 9.684141159 -1.220584631 2.194868358e-38
12.30632496 9.707669258 -1.213934898 2.194868358e-38
12.11608696 9.679759026 -1.201051593 2.204051908e-38
11.9761734 9.689918518 -1.193099618 2.204051908e-38
11.84864521 9.708614349 -1.186356306 2.204051908e-38
11.69912434 9.707618713 -1.177371264 2.204051908e-38
11.53419876 9.691865921 -1.166787028 2.204051908e-38
11.37551022 9.679151535 -1.156764865 2.204051908e-38
11.2485342 9.691678047 -1.149926186 2.204051908e-38
11.08182144 9.668095589 -1.138974667 2.204051908e-38
10.98652267 9.705242157 -1.135324955 2.204051908e-38
10.84278107 9.698335648 -1.126650453 2.213235457e-38
10.70772934 9.697394371 -1.118826985 2.213235457e-38
10.591506 9.712024689 -1.112936616 2.213235457e-38
10.43304157 9.686161041 -1.102558136 2.213235457e-38
10.30767441 9.689157486 -1.09562254 2.213235457e-38
10.19056797 9.69848156 -1.089529872 2.213235457e-38
10.06654549 9.699769974 -1.08265996 2.213235457e-38
9.917672157 9.675325394 -1.073065042 2.213235457e-38
9.825241089 9.704453468 -1.069536328 2.213235457e-38
9.759951591 9.759929657 -1.068977952 2.213235457e-38
9.720643997 9.841638565 -1.071321845 2.213235457e-38
9.616761208 9.857656479 -1.066571236 2.213235457e-38
9.60986042 9.973201752 -1.07262218 2.213235457e-38
9.51855278 10.00149822 -1.06931448 2.213235457e-38
9.462394714 10.06644726 -1.069981337 2.213235457e-38
9.431720734 10.15895367 -1.073593616 2.213235457e-38
9.409535408 10.26162243 -1.078273296 2.213235457e-38
9.362689018 10.33813381 -1.080208659 2.213235457e-38
9.299762726 10.39718342 -1.080348611 2.213235457e-38
9.318813324 10.54903126 -1.090117812 2.213235457e-38
9.269234657 10.62461662 -1.09198308 2.213235457e-38
9.209750175 10.68919277 -1.092746019 2.213235457e-38
9.185943604 10.79584122 -1.097820163 2.213235457e-38
9.162319183 10.90400696 -1.103036404 2.213235457e-38
9.118027687 10.98856258 -1.105864167 2.213235457e-38
9.120409012 11.1307745 -1.11447835 2.213235457e-38
9.144474983 11.3020134 -1.125939965 2.213235457e-38
9.099934578 11.39028263 -1.129105449 2.204051908e-38
10.37160206 13.14792347 -1.296956062 2.185684809e-38
10.23999596 13.31656647 -1.300997734 2.185684809e-38
10.20630836 13.44401836 -1.307257891 2.185684809e-38
10.15404797 13.54833603 -1.31126976 2.185684809e-38
10.11303139 13.84720325 -1.327987075 2.185684809e-38
10.09593487 14.00481796 -1.337090969 2.185684809e-38
10.06705856 14.14837551 -1.344825625 2.185684809e-38
10.11312294 14.40082932 -1.362852573 2.185684809e-38
10.13390732 14.62186909 -1.377813816 2.176501259e-38
13.00412178 19.01322365 -1.783998489 2.13976706e-38
12.87801933 19.08110809 -1.782860875 2.13976706e-38
12.75763798 19.15715027 -1.782559633 2.13976706e-38
12.6202507 19.20723152 -1.779923916 2.13976706e-38
12.5147419 19.30581665 -1.781852961 2.13976706e-38
12.39058495 19.3757782 -1.781203508 2.13976706e-38
12.27166557 19.45382118 -1.781367898 2.13976706e-38
12.17958832 19.57504845 -1.785537243 2.13976706e-38
11.9166193 19.69127083 -1.782556653 2.13976706e-38
11.78347301 19.74597549 -1.780878305 2.13976706e-38
11.68415642 19.85754585 -1.7843889 2.130583511e-38
11.42468262 19.97783279 -1.782363772 2.130583511e-38
11.30361843 20.05298042 -1.782796979 2.130583511e-38
11.16705608 20.10028076 -1.780828238 2.130583511e-38
11.05227184 20.18662643 -1.78238833 2.130583511e-38
10.94990063 20.29664803 -1.78608942 2.130583511e-38
3.226432085 6.16169405 -0.5386704206 2.277520305e-38
3.228022337 6.258607388 -0.5453864932 2.277520305e-38
3.242186546 6.382628441 -0.5544367433 2.277520305e-38
3.169116735 6.335552692 -0.5486344099 2.277520305e-38
3.120003223 6.33496809 -0.5469020605 2.277520305e-38
3.082108736 6.356900215 -0.547139883 2.277520305e-38
3.024181366 6.336924553 -0.5438007712 2.277520305e-38
2.975062132 6.334534168 -0.5420064926 2.277520305e-38
2.940015078 6.361849308 -0.5427773595 2.277520305e-38
2.864589691 6.405494213 -0.5434364676 2.277520305e-38
2.784470081 6.331172943 -0.5356597304 2.277520305e-38
2.736339808 6.32763195 -0.5339181423 2.277520305e-38
2.713415384 6.382623672 -0.5371319652 2.277520305e-38
2.656021833 6.35654068 -0.5335450172 2.277520305e-38
2.562068701 6.351426601 -0.5304146409 2.277520305e-38
2.51717329 6.353104115 -0.5292445421 2.277520305e-38
2.422728539 6.34263134 -0.5258354545 2.277520305e-38
2.388014078 6.36963129 -0.5268400908 2.277520305e-38
2.338076115 6.355826855 -0.5244922042 2.277520305e-38
2.294514179 6.358419418 -0.5235249996 2.277520305e-38
2.256345272 6.375858307 -0.523801744 2.277520305e-38
2.20207715 6.347079754 -0.5203089118 2.277520305e-38
2.161842823 6.357765198 -0.5200784802 2.277520305e-38
2.121071339 6.366865635 -0.5197401047 2.277520305e-38
2.089174032 6.402887821 -0.5216159821 2.277520305e-38
2.041166544 6.389472008 -0.5194848776 2.277520305e-38
1.984239578 6.346385002 -0.5149742365 2.277520305e-38
1.961591959 6.412885666 -0.5193763971 2.277520305e-38
1.909161091 6.382376671 -0.5159395337 2.277520305e-38
1.865664482 6.380382538 -0.5148357153 2.277520305e-38
1.829577804 6.403708935 -0.5157945156 2.277520305e-38
1.777875543 6.371709347 -0.5123218894 2.277520305e-38
1.729753137 6.350656986 -0.5097593069 2.277520305e-38
1.693865299 6.374094486 -0.5107901692 2.277520305e-38
1.645076036 6.348427773 -0.5079082847 2.277520305e-38
1.606899142 6.362911701 -0.5082622766 2.277520305e-38
1.568404317 6.376291275 -0.5085465312 2.277520305e-38
1.521553397 6.355016708 -0.5060896873 2.277520305e-38
1.446085453 6.387623787 -0.5072233081 2.277520305e-38
1.401105762 6.371700287 -0.5052606463 2.277520305e-38
1.358192682 6.363935947 -0.5039693713 2.277520305e-38
1.318242431 6.369433403 -0.503749609 2.277520305e-38
1.273962736 6.353302956 -0.5018410087 2.277520305e-38
1.237086654 6.373607635 -0.502831459 2.277520305e-38
1.194867373 6.366349697 -0.501666069 2.277520305e-38
1.156895757 6.381388187 -0.5022775531 2.277520305e-38
1.034062266 6.375494957 -0.5002171397 2.277520305e-38
0.9926519394 6.369225979 -0.4992340505 2.277520305e-38
0.9590646625 6.414141655 -0.5022803545 2.277520305e-38
0.9167171717 6.40132618 -0.5008233786 2.286703854e-38
0.8769794106 6.406097889 -0.5007629991 2.286703854e-38
0.8290581703 6.34789896 -0.4958031178 2.286703854e-38
0.7920585275 6.371069908 -0.497220844 2.286703854e-38
0.7503771186 6.356860161 -0.4957402349 2.286703854e-38
0.7184815407 6.427525043 -0.500895083 2.277520305e-38
0.708678484 6.715857029 -0.5230128765 2.277520305e-38
0.6976954937 7.028179646 -0.5469893813 2.277520305e-38
0.6633257866 7.642373562 -0.5941070914 2.268336755e-38
0.782489121 9.711925507 -0.7546013594 2.249969656e-38
0.5388321877 7.247343063 -0.5628369451 2.277520305e-38
0.4914697409 7.213189125 -0.5599377155 2.277520305e-38
0.4479810894 7.234735966 -0.5613842607 2.277520305e-38
0.4013847113 7.203913212 -0.5587893724 2.277520305e-38
0.3570605814 7.211279869 -0.55917871 2.277520305e-38
0.3121641278 7.206681728 -0.5586615801 2.277520305e-38
0.3046878874 9.84992218 -0.7632163763 2.249969656e-38
0.2462404966 9.952609062 -0.7710400224 2.249969656e-38
0.18493554 9.967736244 -0.7721089125 2.249969656e-38
0.1256830692 10.15955734 -0.7868919969 2.249969656e-38
0.06449130177 10.4258709 -0.8074730635 2.249969656e-38
0 20.71850204 -1.604595304 2.15813416e-38
-0.1282615066 20.73900604 -1.606214166 2.15813416e-38
-0.256641537 20.74998093 -1.607156515 2.15813416e-38
-0.3829680681 20.6408329 -1.598855734 2.15813416e-38
-0.5333172083 21.56333733 -1.670522332 2.14895061e-38
-0.8011379242 21.58632088 -1.672942638 2.14895061e-38
-0.9894436002 22.84459305 -1.770913959 2.13976706e-38
-1.023307323 20.6674099 -1.60259974 2.15813416e-38
-1.155204177 20.73437691 -1.608315587 2.15813416e-38
-1.281700492 20.69904709 -1.606158853 2.15813416e-38
-1.412501097 20.73213577 -1.609373689 2.15813416e-38
-1.46231699 19.66895103 -1.527514577 2.167317709e-38
-1.584821463 19.67079926 -1.52839005 2.167317709e-38
-1.704689622 19.64043427 -1.526821256 2.167317709e-38
-1.828749537 19.65781784 -1.529022455 2.167317709e-38
-2.071759462 19.63388824 -1.529037714 2.167317709e-38
-2.193496704 19.62363434 -1.529266119 2.167317709e-38
-2.315951347 19.61947632 -1.530029178 2.167317709e-38
-2.437358856 19.60578537 -1.530107617 2.167317709e-38
-2.557995081 19.58600426 -1.529768705 2.167317709e-38
-2.684307575 19.60813522 -1.532765031 2.15813416e-38
-2.950760126 19.73487854 -1.545407534 2.15813416e-38
-3.071378946 19.7073307 -1.544708252 2.15813416e-38
-3.200740576 19.73455811 -1.548364043 2.15813416e-38
-3.584178925 21.26577187 -1.670209169 2.14895061e-38
-3.748751879 20.67747498 -1.627537608 2.14895061e-38
-3.902915955 20.79497528 -1.638638735 2.14895061e-38
-4.04402256 20.83530235 -1.643755078 2.14895061e-38
-4.16665411 20.7781353 -1.641247511 2.14895061e-38
-4.278083324 20.66986656 -1.634753823 2.14895061e-38
-4.378965855 20.51732826 -1.624800086 2.14895061e-38
-4.691001892 21.33318329 -1.691673517 2.14895061e-38
-4.80744648 21.23572922 -1.686271429 2.14895061e-38
-4.807955742 20.08136368 -1.599210739 2.15813416e-38
-4.955378056 20.14608574 -1.606775045 2.15813416e-38
-4.992943287 19.77077866 -1.579270124 2.15813416e-38
-5.369206905 20.72008896 -1.657720685 2.14895061e-38
-5.510898113 20.73863411 -1.661885023 2.14895061e-38
-5.872553825 21.56070137 -1.730650187 2.13976706e-38
-6.06185627 21.72492409 -1.746807933 2.13976706e-38
-5.952057362 20.83302498 -1.678027034 2.14895061e-38
-6.167993546 21.09409714 -1.702095389 2.13976706e-38
-6.504484177 21.74376678 -1.757730484 2.13976706e-38
-6.389432907 20.88845062 -1.691747427 2.14895061e-38
-6.881586552 22.01014328 -1.786004782 2.130583511e-38
-6.884860039 21.55129433 -1.752190828 2.13976706e-38
-6.992506027 21.43015862 -1.745825171 2.13976706e-38
-7.063302994 21.20159721 -1.730729818 2.13976706e-38
-6.986112595 20.54646683 -1.680747509 2.14895061e-38
-7.094772339 20.45027542 -1.676436305 2.14895061e-38
-7.246574879 20.47795296 -1.682346821 2.14895061e-38
-7.385942459 20.46847343 -1.685288668 2.14895061e-38
-5.343475342 14.52566814 -1.19868052 2.204051908e-38
-5.349485397 14.26898479 -1.18020606 2.204051908e-38
-5.341562271 13.98415184 -1.15935719 2.204051908e-38
-5.34913969 13.74829865 -1.142524123 2.204051908e-38
-5.339366436 13.47600079 -1.122618198 2.213235457e-38
-5.389584541 13.36082649 -1.115779161 2.213235457e-38
-5.415733814 13.18993759 -1.104283214 2.213235457e-38
-5.476696491 13.10716629 -1.100169301 2.213235457e-38
-5.563741684 13.0873785 -1.101374865 2.213235457e-38
-5.639703751 13.04149246 -1.100427389 2.213235457e-38
-5.739305973 13.04971123 -1.104094744 2.213235457e-38
-5.937882423 13.06043816 -1.11113131 2.213235457e-38
-6.176249981 13.36471653 -1.140245676 2.204051908e-38
-6.238986492 13.28409672 -1.136637926 2.204051908e-38
-6.22930336 13.05308247 -1.120145917 2.213235457e-38
-6.334179878 13.06439972 -1.124457359 2.213235457e-38
-6.501572132 13.20102406 -1.139655828 2.204051908e-38
-6.622687817 13.23979664 -1.146516919 2.204051908e-38
-6.71489048 13.21912766 -1.148301482 2.204051908e-38
-6.823861599 13.23035336 -1.152920008 2.204051908e-38
-6.913245678 13.20260906 -1.154206038 2.204051908e-38
-5.739671707 10.79830742 -0.9471004009 2.231602557e-38
-5.736012936 10.63227749 -0.9356322289 2.231602557e-38
-5.749228001 10.50085926 -0.9271786213 2.231602557e-38
-5.771863461 10.38917065 -0.9204512239 2.231602557e-38
-5.808110714 10.30380154 -0.9160518646 2.231602557e-38
-5.843912125 10.21905899 -0.9117136002 2.231602557e-38
-5.894615173 10.16133881 -0.9097991586 2.231602557e-38
-5.960985661 10.13087177 -0.9103547335 2.231602557e-38
-5.997378349 10.05000401 -0.9064032435 2.231602557e-38
-6.054055691 10.00389767 -0.9056045413 2.231602557e-38
-6.094973087 9.932322502 -0.9025200009 2.231602557e-38
-6.154862404 9.892148972 -0.9023108482 2.231602557e-38
-6.213171005 9.849556923 -0.9019135237 2.231602557e-38
-6.329734802 9.764575958 -0.9012323618 2.231602557e-38
-6.434757233 9.793349266 -0.9075433016 2.231602557e-38
-6.507042408 9.771128654 -0.9091966152 2.231602557e-38
-6.571826935 9.737382889 -0.9098203778 2.231602557e-38
-6.663414478 9.742588997 -0.9141398072 2.231602557e-38
-6.713341713 9.686494827 -0.9127545953 2.231602557e-38
-6.797461033 9.679441452 -0.9160335064 2.231602557e-38
-5.393242359 7.579744816 -0.7204673886 2.259153205e-38
-5.417489529 7.515039444 -0.717487812 2.259153205e-38
-5.437758446 7.445645809 -0.7140595317 2.259153205e-38
-5.467087746 7.389438152 -0.7118976116 2.259153205e-38
-5.499530315 7.337901592 -0.7101958394 2.259153205e-38
-5.541482449 7.299412727 -0.7097739577 2.259153205e-38
-5.553484917 7.222033978 -0.7055760026 2.259153205e-38
-5.561808109 7.141042233 -0.701010108 2.259153205e-38
-5.57960844 7.073188782 -0.6977230906 2.259153205e-38
-5.622020721 7.037015915 -0.6975714564 2.259153205e-38
-5.625794411 6.953141689 -0.6926922202 2.259153205e-38
-5.649422646 6.894706249 -0.6903383732 2.259153205e-38
-5.739055157 6.829999447 -0.6909144521 2.259153205e-38
-5.747572422 6.754869461 -0.6868969798 2.259153205e-38
-5.776881695 6.704855919 -0.6854308248 2.259153205e-38
-5.815192699 6.665519714 -0.6850727797 2.259153205e-38
-5.857248306 6.63051033 -0.6851847172 2.259153205e-38
-5.885379314 6.579909325 -0.6837041378 2.259153205e-38
-5.924073219 6.541291237 -0.6834851503 2.259153205e-38
-5.986684322 6.528796673 -0.686034739 2.259153205e-38
-6.005733967 6.468820095 -0.6836221814 2.259153205e-38
-6.043262482 6.429023743 -0.683353126 2.259153205e-38
-6.13420105 6.445446491 -0.6891174912 2.259153205e-38
-6.171668053 6.405030251 -0.6888637543 2.259153205e-38
-6.212982655 6.368600845 -0.6890650392 2.259153205e-38
-6.32750845 6.327534676 -0.6930374503 2.259153205e-38
-6.377188206 6.298810482 -0.6941977739 2.259153205e-38
-6.44749403 6.289931774 -0.6976005435 2.259153205e-38
-6.503500938 6.266572475 -0.6994569302 2.259153205e-38
-6.569320679 6.252084255 -0.7023611069 2.259153205e-38
-6.665137768 6.188015461 -0.7043707967 2.259153205e-38
-6.752696991 6.192003727 -0.7095646262 2.259153205e-38
-6.826249599 6.182161331 -0.7132608891 2.259153205e-38
-6.91119051 6.181707859 -0.718125999 2.259153205e-38
-7.076050282 6.173344135 -0.7272665501 2.259153205e-38
-7.13057518 6.143678665 -0.7289528847 2.259153205e-38
-7.341520786 6.168855667 -0.7426580191 2.249969656e-38
-7.452543736 6.18394804 -0.7500095367 2.249969656e-38
-7.519749641 6.161581993 -0.7529227734 2.249969656e-38
-7.61553669 6.161739826 -0.7586827278 2.249969656e-38
-7.696333408 6.148733616 -0.7629262805 2.249969656e-38
-7.83250761 6.178575993 -0.7726255655 2.249969656e-38
-7.90943861 6.160281181 -0.7764389515 2.249969656e-38
-8.025244713 6.171141148 -0.7840479612 2.249969656e-38
-8.118095398 6.163009644 -0.7893790603 2.249969656e-38
-8.297716141 6.139101028 -0.7994009256 2.249969656e-38
-8.395794868 6.131701946 -0.8051831126 2.249969656e-38
-8.503198624 6.129855156 -0.8118304014 2.240786106e-38
-8.606780052 6.124010563 -0.8180897832 2.240786106e-38
-8.700212479 6.109789848 -0.823361814 2.240786106e-38
-8.836063385 6.123961449 -0.8326202631 2.240786106e-38
-8.9585886 6.127208233 -0.8405783176 2.240786106e-38
-9.049793243 6.107792377 -0.8455759883 2.240786106e-38
-9.295520782 6.107676983 -0.8614112735 2.240786106e-38
-9.419335365 6.105969429 -0.8693698049 2.240786106e-38
-15.30960464 9.790328979 -1.407403111 2.176501259e-38
-15.34524822 9.679926872 -1.405148506 2.176501259e-38
-15.40198326 9.583086014 -1.404891491 2.176501259e-38
-15.47937202 9.498960495 -1.406564832 2.176501259e-38
-6.833120823 4.135197163 -0.6185677648 2.268336755e-38
-6.817653179 4.06845808 -0.6148802638 2.268336755e-38
-6.756032944 3.975227833 -0.6070923209 2.268336755e-38
-6.814641953 3.953190804 -0.6101515889 2.268336755e-38
-6.766083717 3.86929965 -0.6036506891 2.268336755e-38
-6.723953247 3.735610962 -0.5957232118 2.268336755e-38
-6.769649029 3.706389904 -0.5977280736 2.268336755e-38
-6.742649555 3.63759923 -0.5933485627 2.268336755e-38
-6.754809856 3.590408087 -0.5924532413 2.268336755e-38
-6.749537945 3.534245014 -0.5900623798 2.268336755e-38
-6.732692719 3.472532272 -0.586699307 2.268336755e-38
-6.732410908 3.41986227 -0.584823668 2.268336755e-38
-6.77810812 3.390500784 -0.5869600773 2.268336755e-38
-6.754747391 3.326742887 -0.583143115 2.268336755e-38
-6.795536995 3.294770956 -0.5848944187 2.268336755e-38
-6.763189316 3.227588654 -0.5803813338 2.268336755e-38
-6.814062595 3.200284719 -0.5830384493 2.268336755e-38
-6.781910419 3.13412571 -0.5786154866 2.268336755e-38
-6.783279896 3.083996773 -0.57709378 2.268336755e-38
-6.866571903 3.070777655 -0.5825553536 2.268336755e-38
-6.85052824 2.962462664 -0.5780389309 2.268336755e-38
-6.870734215 2.92090416 -0.5782083869 2.268336755e-38
-6.860749245 2.86670208 -0.5758671761 2.268336755e-38
-6.906784534 2.835894346 -0.5782483816 2.268336755e-38
-6.882174969 2.776179314 -0.5747386813 2.268336755e-38
-6.974910259 2.763561249 -0.5810456276 2.268336755e-38
-7.074567318 2.752552271 -0.5879186988 2.268336755e-38
-7.194029808 2.747927189 -0.5964211822 2.268336755e-38
-7.340065956 2.751809597 -0.6071053743 2.268336755e-38
-7.586678505 2.737734795 -0.624655962 2.268336755e-38
-7.723542213 2.733265162 -0.6345219016 2.268336755e-38
-7.892443657 2.738228321 -0.6469926238 2.268336755e-38
-7.991288662 2.717272997 -0.653706193 2.259153205e-38
-8.245910645 2.747087955 -0.673132658 2.259153205e-38
-8.397406578 2.739962578 -0.6841002107 2.259153205e-38
-8.83227253 2.821543932 -0.7180921435 2.259153205e-38
-19.11592484 5.976724625 -1.551153898 2.15813416e-38
-19.71407127 6.030172348 -1.596634865 2.15813416e-38
-23.91404152 7.153423309 -1.933164239 2.121399961e-38
-23.96280479 7.006854057 -1.933568597 2.121399961e-38
-24.00988197 6.859743118 -1.933908105 2.121399961e-38
-24.06341743 6.714368343 -1.934841037 2.121399961e-38
-15.27090645 4.159389496 -1.225779414 2.194868358e-38
-15.18416023 4.035053253 -1.216787696 2.194868358e-38
-15.1225462 3.918721437 -1.209885478 2.204051908e-38
-15.1146574 3.817089796 -1.207343459 2.204051908e-38
-15.09723186 3.713521004 -1.204094648 2.204051908e-38
-15.0511837 3.603632927 -1.198619843 2.204051908e-38
-15.11312675 3.519789457 -1.201798916 2.204051908e-38
-15.05772972 3.408850193 -1.19569242 2.204051908e-38
-15.07367325 3.314600468 -1.195309877 2.204051908e-38
-15.07695103 3.217709303 -1.1939677 2.204051908e-38
-15.11357975 3.127923489 -1.195313334 2.204051908e-38
-15.14761543 3.037405729 -1.196498275 2.204051908e-38
-15.09458923 2.929788828 -1.190852404 2.204051908e-38
-15.16112614 2.845523596 -1.194690704 2.204051908e-38
-15.19232941 2.754232645 -1.195786238 2.204051908e-38
-15.24103928 2.665823936 -1.198300004 2.204051908e-38
-15.31891632 2.581915855 -1.20314455 2.204051908e-38
-15.48357201 2.511283398 -1.214832425 2.194868358e-38
-15.72997093 2.451509953 -1.232951522 2.194868358e-38
-16.54221344 2.473422766 -1.295394301 2.185684809e-38
-17.17567062 2.459642649 -1.34378314 2.185684809e-38
-17.84261894 2.442636251 -1.394754529 2.176501259e-38
-18.51784515 2.418517113 -1.446340322 2.176501259e-38
-24.78096581 3.080768824 -1.934000134 2.121399961e-38
-24.78357697 2.925566196 -1.932756066 2.121399961e-38
-24.83683014 2.776220083 -1.935527325 2.121399961e-38
-24.78185654 2.615020037 -1.929948568 2.121399961e-38
-24.85680199 2.467588425 -1.934558272 2.121399961e-38
-24.83536148 2.310449839 -1.931744218 2.121399961e-38
-24.86759949 2.158432245 -1.933172941 2.121399961e-38
-24.90698624 1.851772666 -1.93431139 2.121399961e-38
-24.89842606 1.696367383 -1.932791233 2.121399961e-38
-24.91676712 1.542884111 -1.933438659 2.121399961e-38
-24.92056847 1.233922839 -1.932400346 2.121399961e-38
-24.95573997 1.081007838 -1.934569955 2.121399961e-38
-24.9136982 0.9248586893 -1.930832982 2.121399961e-38
-24.94730568 0.4628967345 -1.932441831 2.121399961e-38
-24.94811821 0.3085874915 -1.932317257 2.121399961e-38
-24.9576416 0.1543404758 -1.932936907 2.121399961e-38
-22.71364594 1.401673671e-05 -1.930131435 2.13976706e-38
-22.75800514 -0.1407338083 -1.933937311 2.13976706e-38
-22.78669739 -0.4227921963 -1.936671495 2.13976706e-38
-22.73613548 -0.5625305772 -1.932633042 2.13976706e-38
-22.76038551 -0.7039915323 -1.935023546 2.13976706e-38
-22.71923065 -0.8433781862 -1.931932926 2.13976706e-38
-22.73540878 -0.9848174453 -1.933793664 2.13976706e-38
-22.7156868 -1.265609741 -1.933295846 2.13976706e-38
-22.710783 -1.40627408 -1.933586836 2.13976706e-38
-22.67728233 -1.545036197 -1.93150878 2.13976706e-38
-22.66693878 -1.826233506 -1.932403922 2.13976706e-38
-22.67615509 -1.968208909 -1.934192538 2.13976706e-38
-22.63344383 -2.105597496 -1.931621552 2.13976706e-38
-22.65128708 -2.248636484 -1.934295058 2.13976706e-38
-22.62544823 -2.387457609 -1.933313131 2.13976706e-38
-22.5841732 -2.665920973 -1.932452321 2.13976706e-38
-22.55321312 -2.803797483 -1.93125236 2.13976706e-38
-21.87757301 -2.857299805 -1.874873757 2.13976706e-38
-20.90826797 -2.862315178 -1.793287873 2.14895061e-38
-20.77206612 -2.974648476 -1.783148766 2.14895061e-38
-20.72829247 -3.099337101 -1.781014323 2.14895061e-38
-20.7085495 -3.22741127 -1.780986428 2.14895061e-38
-20.67652512 -3.353531122 -1.779981852 2.14895061e-38
-20.6735878 -3.484403372 -1.781552434 2.14895061e-38
-20.60985374 -3.736368179 -1.779902697 2.14895061e-38
-20.55696106 -3.858242989 -1.777365208 2.14895061e-38
-20.55900955 -4.12248373 -1.78181076 2.14895061e-38
-20.51574898 -4.245967388 -1.780308843 2.14895061e-38
-20.51639366 -4.378582478 -1.782679439 2.14895061e-38
-20.46624184 -4.500392914 -1.780707598 2.14895061e-38
-20.44309044 -4.62801981 -1.781147838 2.14895061e-38
-20.41526985 -4.754608154 -1.781246662 2.14895061e-38
-20.36486053 -4.875845432 -1.779447198 2.14895061e-38
-20.33617783 -5.002150536 -1.779611945 2.14895061e-38
-20.32030869 -5.131722927 -1.780965209 2.14895061e-38
-20.28833199 -5.257326126 -1.780977249 2.14895061e-38
-19.38020706 -5.150091648 -1.704027295 2.15813416e-38
-20.21650696 -5.506433487 -1.780518055 2.14895061e-38
-20.21164131 -5.639593124 -1.783124804 2.14895061e-38
-20.13256645 -5.886871815 -1.782437086 2.14895061e-38
-20.08603287 -6.008350849 -1.781573415 2.14895061e-38
-20.03531837 -6.128414631 -1.780400872 2.14895061e-38
-20.01091957 -6.256536484 -1.781636357 2.14895061e-38
-19.9574852 -6.375581741 -1.78035605 2.14895061e-38
-15.41824245 -5.03074789 -1.378174543 2.194868358e-38
-15.38757896 -5.126261711 -1.378243089 2.194868358e-38
-15.40679836 -5.238729477 -1.382838607 2.194868358e-38
-19.55265808 -6.783722401 -1.758612394 2.15813416e-38
-19.41455078 -6.870615482 -1.749999642 2.15813416e-38
-19.28166962 -6.958004951 -1.741851568 2.15813416e-38
-19.11398697 -7.031412125 -1.730579972 2.15813416e-38
-18.90947342 -7.089302063 -1.71598208 2.15813416e-38
-18.75649261 -7.164523125 -1.706118464 2.15813416e-38
-18.59536743 -7.235081673 -1.69546473 2.15813416e-38
-18.46784401 -7.317247391 -1.687932611 2.15813416e-38
-18.33347511 -7.39555788 -1.679843783 2.167317709e-38
-18.1301899 -7.444195271 -1.665371537 2.167317709e-38
-17.97948456 -7.512624264 -1.655754924 2.167317709e-38
-17.8111248 -7.571965694 -1.644522071 2.167317709e-38
-17.69978333 -7.654201508 -1.638634324 2.167317709e-38
-17.52785873 -7.708890915 -1.627086759 2.167317709e-38
-11.42357445 -5.108683109 -1.063394427 2.222419007e-38
-11.41578865 -5.190151215 -1.065636277 2.222419007e-38
-17.0694828 -7.888388634 -1.597818494 2.167317709e-38
-16.92620468 -7.949576855 -1.588997602 2.176501259e-38
-16.67383003 -8.084205627 -1.574561715 2.176501259e-38
-16.51287079 -8.132699013 -1.564082265 2.176501259e-38
-16.40656281 -8.206798553 -1.558803201 2.176501259e-38
-16.33935356 -8.299915314 -1.557281733 2.176501259e-38
-16.24871826 -8.380643845 -1.553555131 2.176501259e-38
-16.12015915 -8.441054344 -1.546199441 2.176501259e-38
-15.95276546 -8.606388092 -1.540236235 2.176501259e-38
-15.84176445 -8.673427582 -1.534666538 2.176501259e-38
-15.77198219 -8.762419701 -1.5331285 2.176501259e-38
-15.66337776 -8.829325676 -1.527828097 2.176501259e-38
-15.57171249 -8.904934883 -1.524254084 2.176501259e-38
-15.46367359 -8.970562935 -1.519076824 2.176501259e-38
-15.39363956 -9.057641983 -1.51764369 2.176501259e-38
-15.30613041 -9.133970261 -1.514617205 2.176501259e-38
-15.19441128 -9.195259094 -1.509168386 2.176501259e-38
-15.06369686 -9.243941307 -1.50176096 2.185684809e-38
-14.98331642 -9.322655678 -1.499506474 2.185684809e-38
-14.8092804 -9.341884613 -1.487808704 2.185684809e-38
-14.63771057 -9.360752106 -1.47634542 2.185684809e-38
-14.55171394 -9.432981491 -1.473543048 2.185684809e-38
-7.55540514 -4.964317799 -0.7682285905 2.259153205e-38
-7.470027447 -4.974639416 -0.7626622319 2.259153205e-38
-7.370529175 -4.974453926 -0.7556313276 2.259153205e-38
-7.321220398 -5.007343292 -0.7537346482 2.259153205e-38
-7.196787834 -4.987834454 -0.7440858483 2.259153205e-38
-7.122101307 -5.001568794 -0.7395489812 2.259153205e-38
-6.990712166 -4.974133492 -0.7290857434 2.259153205e-38
-6.907751083 -4.979741096 -0.7236323357 2.259153205e-38
-6.725924969 -4.976211548 -0.7109761834 2.268336755e-38
-6.626976013 -4.966715336 -0.7037501335 2.268336755e-38
-6.559018135 -4.97943306 -0.699791193 2.268336755e-38
-6.487975121 -4.989042759 -0.6954898238 2.268336755e-38
-6.40364933 -5.051457405 -0.6930960417 2.268336755e-38
-12.49616814 -9.983459473 -1.359094381 2.194868358e-38
-12.40112114 -10.03384113 -1.355488777 2.194868358e-38
-12.27957916 -10.06179905 -1.348968863 2.194868358e-38
-12.14391804 -10.07673931 -1.340870857 2.194868358e-38
-12.00594711 -10.08828259 -1.332511783 2.194868358e-38
-11.93992519 -10.15941525 -1.332166195 2.194868358e-38
-11.81432247 -10.17921734 -1.325093985 2.204051908e-38
-11.70268345 -10.20978355 -1.319660902 2.204051908e-38
-11.5693264 -10.220191 -1.311669469 2.204051908e-38
-11.47690678 -10.26550961 -1.308445454 2.204051908e-38
-11.35484219 -10.28346443 -1.30172205 2.204051908e-38
-11.24291039 -10.30938148 -1.296164989 2.204051908e-38
-11.14709759 -10.34913921 -1.292465091 2.204051908e-38
-11.0443716 -10.38170052 -1.288002014 2.204051908e-38
-10.93284035 -10.40498161 -1.282499313 2.204051908e-38
-10.82466221 -10.43028164 -1.277289152 2.204051908e-38
-10.70497036 -10.44341373 -1.270810723 2.204051908e-38
-10.59885788 -10.46858788 -1.265874386 2.204051908e-38
-10.49687672 -10.4969368 -1.261372089 2.204051908e-38
-10.41546059 -10.54512882 -1.259410858 2.204051908e-38
-10.30137348 -10.55944252 -1.253499746 2.204051908e-38
-10.20594311 -10.59196281 -1.249861956 2.204051908e-38
-10.10616207 -10.61894512 -1.245616555 2.204051908e-38
-10.01930809 -10.65904236 -1.24307549 2.204051908e-38
-9.909995079 -10.67414188 -1.237590432 2.213235457e-38
-9.742398262 -10.62463379 -1.224896073 2.213235457e-38
-9.586134911 -10.58490276 -1.213466287 2.213235457e-38
-9.462284088 -10.57892323 -1.206044555 2.213235457e-38
-9.309143066 -10.53814507 -1.194752574 2.213235457e-38
-9.031837463 -10.48270226 -1.175734043 2.213235457e-38
-8.913141251 -10.47534657 -1.168707967 2.213235457e-38
-8.750476837 -10.41395855 -1.155806065 2.213235457e-38
-8.640589714 -10.4132576 -1.14976728 2.222419007e-38
-8.48445034 -10.35468388 -1.137525201 2.222419007e-38
-8.246673584 -10.32235432 -1.122605562 2.222419007e-38
-8.113110542 -10.28489876 -1.113083959 2.222419007e-38
-7.986369133 -10.25400257 -1.104385495 2.222419007e-38
-7.87749958 -10.24432182 -1.098086715 2.222419007e-38
-3.803414822 -5.010002613 -0.534522593 2.286703854e-38
-3.766899586 -5.026158333 -0.5337505937 2.286703854e-38
-3.707398891 -5.011054516 -0.5297017694 2.286703854e-38
-3.682081699 -5.041718006 -0.5305258632 2.286703854e-38
-3.695491314 -5.126340389 -0.5370162129 2.286703854e-38
-3.618021011 -5.084856987 -0.5303157568 2.286703854e-38
-3.584816933 -5.104741096 -0.5300672054 2.286703854e-38
-3.552386522 -5.125650883 -0.5299471021 2.286703854e-38
-6.744267941 -9.992856979 -1.02443099 2.231602557e-38
-6.643045902 -9.975373268 -1.018382311 2.231602557e-38
-6.340039253 -9.914340973 -0.9999194145 2.231602557e-38
-6.235167027 -9.88444519 -0.993033886 2.231602557e-38
-6.121569157 -9.83867836 -0.9845994115 2.231602557e-38
-6.034797192 -9.834224701 -0.9804210663 2.231602557e-38
-5.941311836 -9.817673683 -0.9750224948 2.240786106e-38
-5.856259346 -9.81354332 -0.971013546 2.240786106e-38
-5.65415287 -9.746850967 -0.9574666023 2.240786106e-38
-5.546242714 -9.698504448 -0.9493631721 2.240786106e-38
-5.447768688 -9.664635658 -0.9426771402 2.240786106e-38
-5.332809448 -9.598942757 -0.9330163598 2.240786106e-38
-5.264533043 -9.61548996 -0.9314776659 2.240786106e-38
-5.153347969 -9.552321434 -0.9221985936 2.240786106e-38
-5.067426682 -9.533666611 -0.9173982143 2.240786106e-38
-4.951320648 -9.455766678 -0.906947732 2.240786106e-38
-4.879281998 -9.46025753 -0.9044539928 2.240786106e-38
-4.773742199 -9.397740364 -0.8956325054 2.240786106e-38
-4.688406944 -9.372830391 -0.8905415535 2.240786106e-38
-4.603163719 -9.346402168 -0.8852239847 2.249969656e-38
-4.506227016 -9.294239044 -0.8776737452 2.249969656e-38
-4.42021656 -9.262224197 -0.8720001578 2.249969656e-38
-4.332944393 -9.225721359 -0.8660478592 2.249969656e-38
-4.259622097 -9.217430115 -0.8628015518 2.249969656e-38
-4.185787678 -9.206687927 -0.8593629599 2.249969656e-38
-4.096630573 -9.160559654 -0.8526514173 2.249969656e-38
-4.01092577 -9.11987114 -0.8465121984 2.249969656e-38
-3.932914257 -9.094693184 -0.8418899179 2.249969656e-38
-3.85856986 -9.076364517 -0.8380305171 2.249969656e-38
-3.786330938 -9.061699867 -0.8344934583 2.249969656e-38
-3.71171546 -9.03986454 -0.8303299546 2.249969656e-38
-3.62847209 -8.995080948 -0.824166894 2.249969656e-38
-3.575115204 -9.023312569 -0.8246836066 2.249969656e-38
-3.491806984 -8.974510193 -0.8182447553 2.249969656e-38
-3.430546522 -8.981171608 -0.8169381618 2.249969656e-38
-3.370254278 -8.98975563 -0.8157170415 2.249969656e-38
-3.2967906 -8.961892128 -0.8113442659 2.249969656e-38
-3.228335857 -8.946304321 -0.8080839515 2.249969656e-38
-3.097331762 -8.927575111 -0.8029458523 2.259153205e-38
-3.031448603 -8.915369987 -0.8001221418 2.259153205e-38
-2.966995478 -8.906158447 -0.7976700068 2.259153205e-38
-2.904051781 -8.900234222 -0.7954881787 2.259153205e-38
-2.834162712 -8.87172699 -0.7913436294 2.259153205e-38
-2.76350832 -8.838824272 -0.786876142 2.259153205e-38
-2.651356459 -8.863492012 -0.7860586643 2.259153205e-38
-2.588047504 -8.850850105 -0.7835463285 2.259153205e-38
-2.522367716 -8.828480721 -0.780171752 2.259153205e-38
-2.454726934 -8.79745388 -0.7760515213 2.259153205e-38
-2.401754618 -8.817944527 -0.7765557766 2.259153205e-38
-2.336975813 -8.794417381 -0.7731775641 2.259153205e-38
-2.290703297 -8.839831352 -0.7759520411 2.259153205e-38
-2.22402668 -8.806746483 -0.7717924714 2.259153205e-38
-2.158566952 -8.775767326 -0.7678659558 2.259153205e-38
-2.101825476 -8.778523445 -0.7669636011 2.259153205e-38
-2.041616201 -8.766270638 -0.7647697926 2.259153205e-38
-1.979202986 -8.742621422 -0.7616227269 2.259153205e-38
-1.919088721 -8.727380753 -0.7593097091 2.259153205e-38
-1.860323548 -8.716561317 -0.7573395967 2.259153205e-38
-1.800871611 -8.701494217 -0.7549975514 2.259153205e-38
-1.745589972 -8.705478668 -0.7544314265 2.259153205e-38
-1.686611533 -8.689619064 -0.7521201372 2.259153205e-38
-1.62428534 -8.654429436 -0.7482235432 2.259153205e-38
-1.569572687 -8.657864571 -0.7476589084 2.259153205e-38
-1.512655258 -8.648323059 -0.7460147142 2.259153205e-38
-1.455406547 -8.635260582 -0.7440472841 2.259153205e-38
-1.40383184 -8.655527115 -0.7450664043 2.259153205e-38
-1.343008041 -8.61716938 -0.7410601377 2.259153205e-38
-1.288772702 -8.619520187 -0.7405118942 2.259153205e-38
-1.231291175 -8.598047256 -0.7380030155 2.259153205e-38
-1.17505908 -8.583334923 -0.7361080647 2.259153205e-38
-1.12219429 -8.59247303 -0.7362591028 2.259153205e-38
-1.06494081 -8.566026688 -0.7334828377 2.259153205e-38
-1.011089683 -8.565106392 -0.7328094244 2.259153205e-38
-0.9558184147 -8.551106453 -0.7310785651 2.259153205e-38
-0.8990582824 -8.520002365 -0.7279241681 2.259153205e-38
-0.793659091 -8.531197548 -0.7280499935 2.259153205e-38
-0.7387945652 -8.512009621 -0.7259321213 2.259153205e-38
-0.6832112074 -8.480519295 -0.7228513956 2.259153205e-38
-0.6318160892 -8.498111725 -0.7240567207 2.259153205e-38
-0.5750662684 -8.440600395 -0.7188570499 2.259153205e-38
-0.5245094299 -8.470488548 -0.7211027145 2.259153205e-38
-0.4696792364 -8.429826736 -0.7173842788 2.259153205e-38
-0.4195075631 -8.471709251 -0.720712781 2.259153205e-38
-0.3652198613 -8.431836128 -0.7170802951 2.259153205e-38
-0.3133758008 -8.441628456 -0.7177926302 2.268336755e-38
-0.155989036 -8.405930519 -0.7143681049 2.268336755e-38
-0.1033996046 -8.356880188 -0.7101230025 2.268336755e-38
-0.05200602859 -8.411521912 -0.7147150636 2.268336755e-38
-3.891429151e-05 -8.33532238 -0.7082642913 2.268336755e-38
0.05159330741 -8.342475891 -0.708876431 2.268336755e-38
0.1032145247 -8.346701622 -0.7092236876 2.268336755e-38
0.1546744406 -8.334412575 -0.7082848549 2.268336755e-38
0.2058221549 -8.319711685 -0.7071670294 2.268336755e-38
0.2583892047 -8.353823662 -0.7101138234 2.268336755e-38
0.3067078292 -8.262643814 -0.7025171518 2.268336755e-38
0.2257838696 -5.211361885 -0.4432629049 2.295887404e-38
0.2580250204 -5.210154533 -0.4432875216 2.295887404e-38
0.2882117927 -5.172518253 -0.4402285814 2.295887404e-38
0.3212529123 -5.187348843 -0.4416513443 2.295887404e-38
0.3516405821 -5.160563469 -0.4395476878 2.295887404e-38
0.6166734695 -8.294686317 -0.7067466378 2.268336755e-38
0.6622696519 -8.219942093 -0.7006976008 2.268336755e-38
0.7151340246 -8.239374161 -0.7027210593 2.268336755e-38
0.7622671723 -8.193950653 -0.699175477 2.268336755e-38
0.8135021329 -8.194965363 -0.6997283101 2.268336755e-38
0.8675134778 -8.221576691 -0.7024336457 2.268336755e-38
0.9601836801 -8.134383202 -0.6959646344 2.268336755e-38
1.013587713 -8.153245926 -0.6981015801 2.268336755e-38
1.05825007 -8.102930069 -0.6943695545 2.268336755e-38
1.115487933 -8.14832592 -0.6988245249 2.268336755e-38
1.209410787 -8.088541985 -0.6948916912 2.268336755e-38
1.257019162 -8.065662384 -0.6935760975 2.268336755e-38
1.308171749 -8.065509796 -0.6942571998 2.268336755e-38
1.411516786 -8.069952965 -0.6960837245 2.268336755e-38
1.460869074 -8.058398247 -0.6958289742 2.268336755e-38
1.513172626 -8.062279701 -0.6969465017 2.268336755e-38
1.569744468 -8.087669373 -0.7000110745 2.268336755e-38
1.670601487 -8.071977615 -0.7003840208 2.268336755e-38
1.719284773 -8.05621624 -0.6999577284 2.268336755e-38
1.824293494 -8.058678627 -0.7020040751 2.268336755e-38
1.875241399 -8.05202198 -0.7024558187 2.268336755e-38
1.936343551 -8.087602615 -0.7065417171 2.268336755e-38
1.981874704 -8.05741787 -0.7050269842 2.268336755e-38
2.039253473 -8.07503891 -0.7076588869 2.268336755e-38
2.101945877 -8.111666679 -0.7119825482 2.268336755e-38
2.153285027 -8.10304451 -0.7123869061 2.268336755e-38
2.205052137 -8.095689774 -0.7129810452 2.268336755e-38
2.246045351 -8.049609184 -0.7101026177 2.268336755e-38
2.297870636 -8.042955399 -0.710723877 2.268336755e-38
2.336138487 -7.989535809 -0.7072668672 2.268336755e-38
2.374934196 -7.93938303 -0.7041140795 2.268336755e-38
2.430454016 -7.945868015 -0.7060284615 2.268336755e-38
2.493182659 -7.974124908 -0.7098656893 2.268336755e-38
2.52490139 -7.903701305 -0.7049660683 2.268336755e-38
2.596850395 -7.958938599 -0.7113386393 2.268336755e-38
2.643840313 -7.935953617 -0.7107647061 2.268336755e-38
2.702395916 -7.947613239 -0.7132487893 2.268336755e-38
2.76035428 -7.956291676 -0.7155385017 2.268336755e-38
2.824900866 -7.982464314 -0.7194880843 2.268336755e-38
2.937095404 -7.984155178 -0.7228281498 2.259153205e-38
3.002147198 -8.007914543 -0.7266804576 2.259153205e-38
3.116415024 -8.009820938 -0.7302905917 2.259153205e-38
3.177539349 -8.019723892 -0.7329539657 2.259153205e-38
3.236697912 -8.023821831 -0.7351210117 2.259153205e-38
3.294244289 -8.023090363 -0.7369449139 2.259153205e-38
3.37197423 -8.070118904 -0.7431314588 2.259153205e-38
3.501061678 -8.096111298 -0.7494315505 2.259153205e-38
3.547110319 -8.065245628 -0.7486601472 2.259153205e-38
3.606882095 -8.065423012 -0.7507130504 2.259153205e-38
3.670447111 -8.073295593 -0.7535514235 2.259153205e-38
3.754311562 -8.123960495 -0.7604352832 2.259153205e-38
3.817640305 -8.128663063 -0.7630596161 2.259153205e-38
3.885788441 -8.142463684 -0.7665711641 2.259153205e-38
3.949493885 -8.145939827 -0.7692345977 2.259153205e-38
4.001787663 -8.125494003 -0.7695747018 2.259153205e-38
4.151974678 -8.173769951 -0.7789934278 2.259153205e-38
4.225293159 -8.192122459 -0.7832278013 2.259153205e-38
4.286825657 -8.186907768 -0.7852186561 2.259153205e-38
4.37053299 -8.222514153 -0.7912415266 2.259153205e-38
4.430535793 -8.212496758 -0.792914629 2.259153205e-38
4.491061211 -8.20293045 -0.7946070433 2.259153205e-38
4.563372612 -8.213926315 -0.7983669639 2.259153205e-38
4.657164574 -8.262054443 -0.8058581948 2.249969656e-38
4.719345093 -8.252639771 -0.8077781796 2.249969656e-38
4.856007576 -8.25301075 -0.8136315346 2.249969656e-38
4.95063591 -8.296064377 -0.8208734393 2.249969656e-38
5.023871899 -8.301672935 -0.8245083094 2.249969656e-38
5.069960594 -8.262038231 -0.8236290216 2.249969656e-38
5.175737381 -8.318516731 -0.8324350119 2.249969656e-38
5.240151882 -8.307130814 -0.8345365524 2.249969656e-38
5.313046932 -8.30828476 -0.837916553 2.249969656e-38
5.406356812 -8.340189934 -0.8444724679 2.249969656e-38
5.511297226 -8.387990952 -0.8527979851 2.249969656e-38
5.573133469 -8.368814468 -0.8543087244 2.249969656e-38
5.663813591 -8.39195919 -0.8602887392 2.249969656e-38
5.757471561 -8.418023109 -0.8665985465 2.249969656e-38
5.823694706 -8.402888298 -0.8687053323 2.249969656e-38
5.90533638 -8.409124374 -0.8730344772 2.249969656e-38
6.025475979 -8.468361855 -0.883053422 2.249969656e-38
6.076705933 -8.429449081 -0.8829554319 2.249969656e-38
6.179470062 -8.461268425 -0.8902750015 2.249969656e-38
6.264293194 -8.466965675 -0.8949093223 2.240786106e-38
6.361998558 -8.488777161 -0.9013580084 2.240786106e-38
6.543194771 -8.509200096 -0.9120823145 2.240786106e-38
6.640688896 -8.526288986 -0.9182701111 2.240786106e-38
3.972101688 -5.03532362 -0.544993341 2.277520305e-38
3.994171619 -4.999368191 -0.5437645316 2.286703854e-38
4.043736935 -4.99776125 -0.5462993979 2.277520305e-38
4.110133648 -5.016043663 -0.5510658026 2.277520305e-38
4.21004343 -5.010251522 -0.5561076403 2.277520305e-38
7.321876526 -8.60515213 -0.9600890279 2.240786106e-38
7.50965929 -8.607811928 -0.9706176519 2.240786106e-38
7.625744343 -8.632508278 -0.9787141681 2.231602557e-38
7.726743221 -8.638624191 -0.9848216772 2.231602557e-38
7.848230362 -8.666015625 -0.9934459329 2.231602557e-38
7.912425518 -8.628995895 -0.9947806001 2.231602557e-38
7.983376503 -8.599029541 -0.9970012903 2.231602557e-38
8.08439827 -8.600542068 -1.002979636 2.231602557e-38
8.199589729 -8.615735054 -1.01061511 2.231602557e-38
8.240305901 -8.551955223 -1.009099245 2.231602557e-38
8.358225822 -8.567640305 -1.017016292 2.231602557e-38
8.443632126 -8.548802376 -1.02099514 2.231602557e-38
8.532232285 -8.532305717 -1.025315285 2.231602557e-38
8.61582756 -8.509959221 -1.0289675 2.231602557e-38
5.198142052 -5.071051598 -0.6170984507 2.277520305e-38
5.264115334 -5.07225275 -0.6211940646 2.277520305e-38
5.250930309 -4.997312546 -0.6159814596 2.277520305e-38
5.317913532 -4.998751163 -0.620200336 2.277520305e-38
5.392424583 -5.006344795 -0.6252678037 2.277520305e-38
5.465997696 -5.012044907 -0.6301899552 2.277520305e-38
5.510357857 -4.990345955 -0.6317343712 2.268336755e-38
5.609253407 -5.017139435 -0.6395049095 2.268336755e-38
5.693231583 -5.029230595 -0.6455215812 2.268336755e-38
5.807525635 -5.06658411 -0.6549136639 2.268336755e-38
5.880808353 -5.066812992 -0.6596314311 2.268336755e-38
5.976973534 -5.085608959 -0.6668784022 2.268336755e-38
9.910596848 -8.223660469 -1.094269633 2.222419007e-38
10.07919407 -8.258791924 -1.107219577 2.222419007e-38
6.278261662 -5.079684258 -0.6862606406 2.268336755e-38
6.327054024 -4.990971565 -0.6847957373 2.268336755e-38
6.445060253 -5.019704342 -0.6941937208 2.268336755e-38
6.482260704 -4.984583378 -0.6948671341 2.268336755e-38
6.578276634 -4.993985653 -0.7018356919 2.268336755e-38
6.742442131 -4.988382816 -0.7127137184 2.268336755e-38
6.830183029 -4.988225937 -0.7187126279 2.268336755e-38
6.982605934 -4.968290806 -0.7282286882 2.259153205e-38
7.17925024 -4.975637436 -0.7422640324 2.259153205e-38
7.302708149 -4.994628906 -0.7518200874 2.259153205e-38
7.37778759 -4.979278564 -0.7563626766 2.259153205e-38
7.538383484 -5.020094395 -0.7696298957 2.259153205e-38
11.9273138 -7.836954117 -1.212650061 2.213235457e-38
12.00448227 -7.781783104 -1.215609431 2.213235457e-38
8.094763756 -5.17645216 -0.8164868355 2.249969656e-38
8.066166878 -5.08815527 -0.8104129434 2.249969656e-38
8.111535072 -4.977620602 -0.8087254167 2.249969656e-38
8.233068466 -4.982358456 -0.8177522421 2.249969656e-38
8.40594101 -5.016230583 -0.8318281174 2.249969656e-38
8.475873947 -4.987136841 -0.8356793523 2.249969656e-38
12.99219894 -7.5369277 -1.276266694 2.204051908e-38
13.10094166 -7.492061615 -1.282445431 2.204051908e-38
13.20267105 -7.442280769 -1.28777492 2.204051908e-38
13.37390518 -7.430141449 -1.300033092 2.204051908e-38
13.47608757 -7.378265858 -1.305471778 2.204051908e-38
13.58525085 -7.329137802 -1.311689258 2.204051908e-38
13.74721813 -7.307153225 -1.322890401 2.204051908e-38
14.05047417 -7.246929646 -1.343312263 2.194868358e-38
14.29164505 -7.259761333 -1.362087727 2.194868358e-38
14.48238087 -7.244363785 -1.375939369 2.194868358e-38
14.72318459 -7.251280308 -1.394554496 2.194868358e-38
14.94652939 -7.246747017 -1.411438942 2.194868358e-38
15.12684822 -7.219023228 -1.424225569 2.185684809e-38
15.36918736 -7.218308926 -1.442790031 2.185684809e-38
15.62867451 -7.222545147 -1.462955713 2.185684809e-38
16.09538269 -7.198020458 -1.498214841 2.185684809e-38
16.40455818 -7.214869022 -1.522804022 2.176501259e-38
12.03710079 -5.205318928 -1.114413738 2.222419007e-38
12.12033749 -5.152584076 -1.119148612 2.222419007e-38
17.16962624 -7.174265862 -1.581204653 2.176501259e-38
17.59166718 -7.223112583 -1.615963697 2.167317709e-38
18.69462585 -7.407132626 -1.708712101 2.15813416e-38
19.27601051 -7.49993372 -1.75748992 2.15813416e-38
19.57637405 -7.477640629 -1.780760527 2.14895061e-38
19.63521957 -7.36130476 -1.781938791 2.14895061e-38
19.65338516 -7.229825497 -1.779499054 2.14895061e-38
14.07593536 -5.079398632 -1.271618843 2.204051908e-38
14.28587914 -5.055529118 -1.287735581 2.204051908e-38
14.44614792 -5.011937618 -1.299363494 2.204051908e-38
14.71001911 -5.00178051 -1.320288658 2.204051908e-38
14.97213745 -4.987835884 -1.341022611 2.194868358e-38
15.20567894 -4.961379051 -1.359164834 2.194868358e-38
15.44836712 -4.935076237 -1.378104806 2.194868358e-38
15.96665287 -4.992025852 -1.421556354 2.185684809e-38
16.23944473 -4.967292786 -1.443084002 2.185684809e-38
16.5209446 -4.941875458 -1.465352654 2.185684809e-38
16.83485413 -4.922558308 -1.490465879 2.185684809e-38
20.19259644 -5.769130707 -1.784559727 2.14895061e-38
20.195858 -5.635210514 -1.781732202 2.14895061e-38
20.22033691 -5.507498741 -1.780855417 2.14895061e-38
19.99198151 -5.180514812 -1.754963398 2.15813416e-38
20.31637764 -5.130755901 -1.780624032 2.14895061e-38
20.34109688 -5.003384113 -1.780038953 2.14895061e-38
20.36267853 -4.875357628 -1.77925992 2.14895061e-38
20.43682671 -4.759681225 -1.783137798 2.14895061e-38
20.45088577 -4.62979126 -1.781823516 2.14895061e-38
20.49821663 -4.507439613 -1.783489704 2.14895061e-38
20.51163292 -4.377578735 -1.782262206 2.14895061e-38
20.49101448 -4.240858078 -1.778159142 2.14895061e-38
20.60322762 -3.866939068 -1.781362176 2.14895061e-38
20.6093483 -3.736306429 -1.779862523 2.14895061e-38
20.59267235 -3.601888657 -1.776463509 2.14895061e-38
20.66710663 -3.48333931 -1.780997276 2.14895061e-38
20.71253586 -3.359388351 -1.783081889 2.14895061e-38
20.71732903 -2.966820717 -1.778449893 2.14895061e-38
20.77410316 -2.843967199 -1.781780243 2.14895061e-38
20.7880497 -2.715014458 -1.781501532 2.14895061e-38
20.78801537 -2.584372759 -1.78009975 2.14895061e-38
21.58865166 -2.548431635 -1.847271204 2.14895061e-38
22.51714134 -2.516940117 -1.925348639 2.13976706e-38
22.58058357 -2.382735729 -1.929476023 2.13976706e-38
22.64253044 -2.247783184 -1.933547378 2.13976706e-38
22.6826973 -2.110194921 -1.935825109 2.13976706e-38
22.66711807 -1.96743536 -1.933418393 2.13976706e-38
22.6645546 -1.82606709 -1.932200789 2.13976706e-38
22.68433189 -1.686535358 -1.932960987 2.13976706e-38
22.71148491 -1.547381163 -1.934421897 2.13976706e-38
22.69639397 -1.405400872 -1.932358503 2.13976706e-38
22.7507515 -1.267583847 -1.936283469 2.13976706e-38
22.72872162 -1.125411272 -1.933779955 2.13976706e-38
22.75019264 -0.9854781032 -1.935047746 2.13976706e-38
21.06108284 -0.7818495035 -1.79093504 2.14895061e-38
21.08362198 -0.6521508098 -1.792474031 2.14895061e-38
22.74461746 -0.4220353663 -1.933098435 2.13976706e-38
22.78668022 -0.2818675935 -1.93648386 2.13976706e-38
22.75540161 -0.1407421231 -1.933716059 2.13976706e-38
22.77979279 -1.711357618e-05 -1.935755491 2.13976706e-38
22.75454903 0.1407060921 -1.933640361 2.13976706e-38
22.79129028 0.2818897367 -1.936875582 2.13976706e-38
22.71636581 0.4214963019 -1.930690646 2.13976706e-38
22.74827576 0.5628368258 -1.933668375 2.13976706e-38
22.71448898 0.7025797963 -1.931128144 2.13976706e-38
22.676754 0.8418152332 -1.928327441 2.13976706e-38
21.08778 0.9134489298 -1.793651342 2.14895061e-38
21.07427597 1.04346931 -1.793015242 2.14895061e-38
22.7292614 1.26637125 -1.934454441 2.13976706e-38
22.71656609 1.406640768 -1.934075952 2.13976706e-38
22.67008972 1.544552326 -1.930896282 2.13976706e-38
22.69291115 1.68715477 -1.933691978 2.13976706e-38
22.66957855 1.826457739 -1.932628989 2.13976706e-38
22.68555641 1.969011188 -1.934991121 2.13976706e-38
22.65075302 2.107203484 -1.933095455 2.13976706e-38
22.60097122 2.384869337 -1.931218266 2.13976706e-38
22.61728287 2.528127909 -1.933914304 2.13976706e-38
22.5494976 2.661824942 -1.929485202 2.13976706e-38
22.59672546 2.809207201 -1.934978366 2.13976706e-38
21.12180901 2.758593082 -1.810103774 2.14895061e-38
20.69760895 2.833483934 -1.775220037 2.14895061e-38
22.50777817 3.365392923 -1.933900595 2.13976706e-38
